ncols        176
nrows        31
xllcorner    54600
yllcorner    224620
cellsize     10.000000000000
NODATA_value  -9999
2694.293701171875 2691.064208984375 2688.154541015625 2685.36669921875 2682.095458984375 2678.66162109375 2675.945556640625 2673.02197265625 2675.4833984375 2678.060302734375 2679.2626953125 2675.0458984375 2673.2509765625 2671.1455078125 2668.99658203125 2667.19189453125 2665.68994140625 2664.093994140625 2661.247314453125 2656.951171875 2655.029052734375 2654.285400390625 2654.313232421875 2653.68212890625 2652.714111328125 2650.67626953125 2648.65966796875 2649.89111328125 2650.102783203125 2651.5126953125 2653.4638671875 2656.88916015625 2665.42041015625 2672.142578125 2672.1533203125 2670.63427734375 2671.46875 2672.88720703125 2673.502197265625 2673.749267578125 2675.4921875 2677.9833984375 2679.15234375 2678.0654296875 2677.668212890625 2673.383544921875 2673.41015625 2673.135986328125 2674.54833984375 2673.97119140625 2673.305908203125 2671.71923828125 2671.094970703125 2672.3046875 2672.43994140625 2672.27001953125 2673.825927734375 2684.33154296875 2687.8955078125 2686.77783203125 2687.103271484375 2705.957275390625 2720.5224609375 2736.016845703125 2739.863525390625 2748.87890625 2758.3857421875 2764.901611328125 2763.658935546875 2761.73876953125 2759.9169921875 2757.435791015625 2755.17578125 2754.256591796875 2753.224853515625 2752.860595703125 2752.074462890625 2752.747802734375 2751.44384765625 2754.594482421875 2751.726318359375 2742.023193359375 2730.774169921875 2722.08837890625 2711.298095703125 2703.439208984375 2696.92529296875 2687.973388671875 2674.73681640625 2664.339599609375 2656.290283203125 2646.607421875 2632.668701171875 2619.71875 2611.184326171875 2603.54052734375 2595.88427734375 2589.75537109375 2582.9404296875 2576.03759765625 2568.459228515625 2561.097900390625 2553.97802734375 2546.4794921875 2539.58056640625 2532.60009765625 2526.258056640625 2518.935546875 2514.20068359375 2509.781005859375 2504.47900390625 2500.601806640625 2498.69580078125 2495.63134765625 2492.957763671875 2488.2373046875 2485.54931640625 2485.3896484375 2487.500244140625 2488.787841796875 2484.906494140625 2479.37744140625 2474.01806640625 2469.407958984375 2464.832763671875 2461.57373046875 2457.85009765625 2453.774169921875 2450.889892578125 2449.434326171875 2448.82421875 2447.81494140625 2447.049560546875 2443.97265625 2442.60107421875 2438.83837890625 2433.92333984375 2432.32470703125 2427.3603515625 2422.701171875 2418.291748046875 2413.0654296875 2407.966064453125 2403.550537109375 2399.871826171875 2393.660888671875 2389.566650390625 2384.770263671875 2379.300537109375 2373.971923828125 2368.42822265625 2365.51318359375 2363.0546875 2360.198974609375 2359.891845703125 2358.276611328125 2356.424072265625 2356.847900390625 2357.488525390625 2357.965576171875 2357.3125 2355.744384765625 2352.352294921875 2349.908203125 2346.16796875 2339.765625 2335.1787109375 2332.318359375 2330.943115234375 2331.184814453125 2331.038818359375 2330.474609375 2330.227783203125 2328.87060546875 2326.884521484375 2325.63916015625
2690.80419921875 2688.520263671875 2685.262939453125 2682.449462890625 2679.77734375 2677.056884765625 2673.872314453125 2671.3466796875 2669.21142578125 2672.223876953125 2674.320556640625 2674.352783203125 2669.462890625 2666.986572265625 2665.866455078125 2664.638427734375 2661.81640625 2661.078369140625 2658.264892578125 2655.392578125 2652.2294921875 2649.923095703125 2649.64599609375 2648.63623046875 2647.62109375 2646.119140625 2644.311279296875 2643.140869140625 2642.82861328125 2644.15087890625 2645.515869140625 2651.274169921875 2656.74365234375 2659.739990234375 2660.250244140625 2662.217529296875 2663.94189453125 2666.31884765625 2668.080810546875 2670.26416015625 2671.475830078125 2673.455322265625 2674.35595703125 2673.860595703125 2672.955810546875 2669.817626953125 2668.869873046875 2667.541259765625 2668.329345703125 2667.754150390625 2667.05810546875 2665.197265625 2664.777587890625 2665.06005859375 2665.436767578125 2664.959716796875 2664.871826171875 2665.160400390625 2680.102294921875 2676.9619140625 2678.114501953125 2682.37255859375 2710.053466796875 2728.17236328125 2727.253173828125 2740.8603515625 2752.14404296875 2757.415283203125 2755.61181640625 2753.617919921875 2751.84716796875 2749.46435546875 2747.16748046875 2746.256591796875 2745.578857421875 2744.322021484375 2742.983154296875 2743.930908203125 2741.865478515625 2744.897216796875 2743.693603515625 2742.328125 2743.417236328125 2734.633056640625 2721.23876953125 2710.679931640625 2703.58447265625 2695.0439453125 2683.88525390625 2675.956787109375 2668.33740234375 2658.63623046875 2652.216552734375 2629.636962890625 2617.745361328125 2604.8056640625 2596.45751953125 2588.86474609375 2581.319091796875 2574.363037109375 2567.181884765625 2560.364990234375 2553.435546875 2546.031005859375 2538.66357421875 2531.828369140625 2525.385986328125 2519.24462890625 2513.899658203125 2508.571044921875 2503.6826171875 2499.43701171875 2495.488037109375 2492.677490234375 2490.945556640625 2487.502197265625 2484.1533203125 2483.32421875 2485.127685546875 2485.44287109375 2482.063232421875 2476.802001953125 2471.15625 2466.026123046875 2459.549072265625 2456.63818359375 2453.156005859375 2449.806884765625 2447.3115234375 2444.146728515625 2443.19873046875 2442.128173828125 2441.09228515625 2438.572265625 2435.659423828125 2432.998046875 2430.09326171875 2425.7841796875 2422.940673828125 2418.43896484375 2413.84130859375 2409.7265625 2405.1533203125 2401.25146484375 2396.37939453125 2392.694580078125 2386.93408203125 2381.898193359375 2377.470458984375 2372.207275390625 2366.901123046875 2362.835693359375 2359.148681640625 2356.91748046875 2353.869140625 2352.09033203125 2351.07080078125 2350.743408203125 2350.958251953125 2351.2900390625 2351.437255859375 2350.258056640625 2348.22119140625 2346.8271484375 2343.783203125 2336.37890625 2331.46044921875 2328.59130859375 2327.088134765625 2328.364013671875 2327.327880859375 2328.207275390625 2327.8359375 2327.46484375 2325.47314453125 2325.57763671875
2687.140380859375 2684.99755859375 2682.29541015625 2679.61572265625 2676.78955078125 2674.52490234375 2671.8291015625 2668.337646484375 2665.27587890625 2666.1318359375 2668.478759765625 2669.115234375 2669.134521484375 2666.32763671875 2663.366455078125 2661.79931640625 2659.4736328125 2656.258056640625 2655.4375 2653.494873046875 2649.66748046875 2646.6005859375 2645.1767578125 2643.60205078125 2642.79443359375 2641.75244140625 2640.22802734375 2637.792236328125 2635.54052734375 2637.384765625 2638.43408203125 2642.904541015625 2648.77001953125 2651.727783203125 2651.250732421875 2653.02099609375 2655.4931640625 2659.16455078125 2662.12890625 2664.642578125 2668.319091796875 2667.76220703125 2669.05615234375 2668.851318359375 2667.748046875 2666.27197265625 2664.902587890625 2662.724365234375 2662.042724609375 2661.958740234375 2660.693603515625 2659.246337890625 2658.1142578125 2658.4130859375 2658.12255859375 2657.86865234375 2658.052734375 2657.48583984375 2659.055908203125 2665.88916015625 2669.12158203125 2672.69580078125 2693.20361328125 2700.28466796875 2702.4462890625 2734.526611328125 2739.181640625 2749.5380859375 2747.76318359375 2745.947509765625 2743.789794921875 2741.265625 2737.93701171875 2737.564453125 2736.833740234375 2735.314697265625 2735.208251953125 2734.547119140625 2733.846923828125 2734.46728515625 2732.78662109375 2732.36474609375 2734.772216796875 2734.025146484375 2730.547119140625 2719.701416015625 2714.583740234375 2703.482177734375 2696.96435546875 2687.899658203125 2678.765380859375 2670.00390625 2655.684326171875 2644.677001953125 2628.57666015625 2611.960205078125 2597.56298828125 2589.68359375 2581.849365234375 2574.479736328125 2566.9443359375 2559.93505859375 2552.41796875 2545.965576171875 2539.021728515625 2532.190673828125 2525.525146484375 2519.189453125 2513.410400390625 2507.5556640625 2503.445068359375 2499.0029296875 2495.094970703125 2491.88525390625 2489.0703125 2486.76123046875 2483.393798828125 2482.52783203125 2483.1357421875 2482.619873046875 2478.544189453125 2474.405029296875 2468.951416015625 2465.227783203125 2460.322998046875 2454.2470703125 2449.1416015625 2445.741455078125 2443.15380859375 2440.68505859375 2438.2939453125 2437.4873046875 2435.786376953125 2433.4853515625 2431.383056640625 2428.28369140625 2424.940673828125 2421.888427734375 2418.15869140625 2413.638671875 2410.16259765625 2406.262939453125 2402.84228515625 2398.692626953125 2394.06005859375 2389.384521484375 2384.33642578125 2379.9267578125 2374.38330078125 2369.97802734375 2364.931884765625 2359.76708984375 2356.21923828125 2353.68701171875 2351.05029296875 2347.746337890625 2346.3994140625 2344.886474609375 2344.999267578125 2344.884521484375 2345.26318359375 2344.94580078125 2343.523193359375 2342.4873046875 2340.24365234375 2334.52978515625 2328.8759765625 2325.13623046875 2325.080322265625 2323.925048828125 2323.768310546875 2323.4130859375 2324.755859375 2324.409912109375 2322.863525390625 2323.883544921875
2683.614501953125 2680.9541015625 2679.029541015625 2676.9306640625 2674.21044921875 2671.523193359375 2669.34619140625 2666.405517578125 2663.95703125 2661.214111328125 2662.593017578125 2663.048828125 2663.8330078125 2664.4951171875 2662.647705078125 2657.878662109375 2655.4931640625 2652.273193359375 2649.509033203125 2648.63623046875 2646.055908203125 2642.220947265625 2639.663330078125 2639.445068359375 2637.808349609375 2637.218994140625 2636.133056640625 2633.508056640625 2630.41845703125 2631.33203125 2631.585693359375 2633.80859375 2638.851318359375 2641.098876953125 2643.0244140625 2645.527587890625 2647.597412109375 2651.643310546875 2654.99267578125 2658.1044921875 2661.63525390625 2663.299560546875 2663.926025390625 2663.2197265625 2663.543212890625 2661.7294921875 2661.035400390625 2658.7080078125 2656.59521484375 2655.55126953125 2654.46435546875 2652.951416015625 2651.6044921875 2651.661865234375 2651.629150390625 2651.174560546875 2651.36083984375 2650.939208984375 2654.7509765625 2659.010986328125 2659.457275390625 2661.758056640625 2670.489013671875 2682.39306640625 2689.22607421875 2721.78955078125 2728.96044921875 2742.139892578125 2740.845947265625 2738.40380859375 2736.287109375 2733.515380859375 2731.06494140625 2729.6708984375 2728.368896484375 2727.028076171875 2726.241943359375 2725.61767578125 2725.34326171875 2726.375 2722.127197265625 2722.264404296875 2724.544921875 2721.361572265625 2721.55810546875 2722.7578125 2722.38525390625 2713.328857421875 2703.957275390625 2694.4033203125 2685.060302734375 2674.018310546875 2666.27197265625 2657.328125 2632.56640625 2620.62158203125 2618.697265625 2597.781982421875 2582.67431640625 2574.690673828125 2566.735595703125 2558.993408203125 2551.63818359375 2544.665771484375 2538.15185546875 2531.832275390625 2525.5478515625 2519.418701171875 2513.527099609375 2507.7890625 2502.52197265625 2497.78076171875 2494.149169921875 2490.765380859375 2487.725341796875 2484.916748046875 2482.47265625 2481.608642578125 2480.777587890625 2478.521728515625 2475.768310546875 2473.313720703125 2468.591064453125 2463.587890625 2457.636962890625 2453.581787109375 2447.38525390625 2442.60107421875 2439.778076171875 2437.427978515625 2435.56103515625 2434.271484375 2432.26318359375 2429.5078125 2427.065673828125 2424.228271484375 2419.71044921875 2417.218994140625 2414.40625 2410.911865234375 2407.044921875 2403.05712890625 2399.21875 2395.011962890625 2390.39990234375 2385.969970703125 2380.27490234375 2376.002685546875 2371.611572265625 2366.972900390625 2362.7373046875 2357.70751953125 2353.654296875 2351.23046875 2348.40771484375 2345.998046875 2343.193603515625 2341.64794921875 2340.143310546875 2339.51904296875 2339.45556640625 2339.4677734375 2338.45458984375 2337.28369140625 2335.45751953125 2333.44482421875 2327.199951171875 2323.68359375 2323.3896484375 2320.318603515625 2320.0302734375 2318.860595703125 2320.25732421875 2321.61279296875 2320.571044921875 2319.619384765625
2679.75390625 2677.47412109375 2675.93701171875 2674.292724609375 2671.59912109375 2669.420166015625 2666.8837890625 2664.476806640625 2661.831298828125 2658.88525390625 2657.239990234375 2656.431396484375 2658.095947265625 2658.5869140625 2658.84033203125 2657.580322265625 2655.214111328125 2649.664306640625 2646.49462890625 2642.40380859375 2639.9306640625 2636.9814453125 2636.396240234375 2635.029052734375 2633.502685546875 2632.439208984375 2631.12890625 2629.603515625 2627.5986328125 2626.427490234375 2625.72021484375 2625.24951171875 2628.810791015625 2632.870361328125 2635.555419921875 2638.196533203125 2640.7041015625 2643.90478515625 2646.246337890625 2650.084716796875 2655.18701171875 2656.683349609375 2658.05078125 2657.369140625 2658.589111328125 2657.97705078125 2658.087646484375 2655.14794921875 2651.792724609375 2649.854248046875 2648.634033203125 2647.27490234375 2645.547119140625 2645.0966796875 2645.00048828125 2644.748779296875 2644.337158203125 2645.28515625 2649.00048828125 2651.749755859375 2650.822509765625 2653.69873046875 2662.130615234375 2663.35693359375 2670.063232421875 2677.83203125 2721.267578125 2733.324951171875 2732.46923828125 2730.845947265625 2728.647216796875 2725.95947265625 2723.57861328125 2722.27880859375 2720.6328125 2718.989013671875 2717.85498046875 2717.2900390625 2716.50390625 2715.093505859375 2715.81201171875 2710.905029296875 2713.0361328125 2711.38623046875 2712.395263671875 2712.34619140625 2710.7373046875 2713.89599609375 2712.827392578125 2702.720703125 2691.676513671875 2679.488037109375 2670.075439453125 2660.075439453125 2641.856201171875 2632.635986328125 2625.274658203125 2614.023681640625 2606.566162109375 2583.6630859375 2567.50537109375 2560.50830078125 2553.23291015625 2546.0556640625 2539.05859375 2532.66357421875 2526.084228515625 2520.065673828125 2514.083984375 2508.290771484375 2502.761474609375 2497.77685546875 2493.18505859375 2488.77978515625 2485.82568359375 2482.992431640625 2480.4951171875 2478.990478515625 2477.7333984375 2477.369140625 2475.40380859375 2472.069091796875 2468.208251953125 2464.611572265625 2458.196044921875 2451.98291015625 2445.4423828125 2440.13232421875 2436.41064453125 2435.397216796875 2435.215087890625 2435.6962890625 2433.884521484375 2430.8056640625 2427.52001953125 2424.269287109375 2420.387939453125 2416.463623046875 2412.0439453125 2407.9150390625 2404.967041015625 2401.394775390625 2395.48291015625 2391.034423828125 2386.277099609375 2381.427490234375 2376.514404296875 2372.162109375 2368.113037109375 2362.9482421875 2359.730224609375 2355.76904296875 2351.64599609375 2348.62060546875 2346.618408203125 2344.116943359375 2342.131103515625 2339.529296875 2337.189453125 2335.75634765625 2334.165771484375 2333.484130859375 2333.9755859375 2332.145263671875 2330.697998046875 2329.070556640625 2325.84814453125 2321.6416015625 2321.1044921875 2317.314208984375 2316.048828125 2315.032470703125 2315.00732421875 2316.90869140625 2317.26904296875 2315.960693359375
2677.760986328125 2673.7451171875 2670.939208984375 2670.3603515625 2669.0595703125 2667.0068359375 2664.9111328125 2662.738525390625 2660.369140625 2657.565185546875 2654.974365234375 2652.701171875 2650.67822265625 2651.232421875 2651.660400390625 2651.603759765625 2651.63037109375 2650.344482421875 2646.49560546875 2639.775634765625 2635.828125 2632.1494140625 2632.152587890625 2631.5556640625 2629.965087890625 2628.06396484375 2626.445556640625 2624.3466796875 2623.300537109375 2622.627685546875 2620.6806640625 2619.73828125 2620.261474609375 2624.393798828125 2628.279052734375 2631.166259765625 2634.201171875 2636.58349609375 2639.104736328125 2641.010009765625 2647.111083984375 2649.610595703125 2652.259521484375 2652.451904296875 2654.4130859375 2655.629150390625 2655.620849609375 2653.41015625 2648.570556640625 2644.867431640625 2643.2236328125 2641.4384765625 2639.8193359375 2638.891845703125 2638.613525390625 2638.165283203125 2637.89697265625 2639.663818359375 2642.1611328125 2644.060791015625 2643.37109375 2646.304443359375 2647.3076171875 2652.21044921875 2653.8173828125 2667.623046875 2679.643798828125 2725.8857421875 2721.339111328125 2722.305419921875 2720.29931640625 2718.06591796875 2715.181396484375 2713.140380859375 2711.779052734375 2710.89697265625 2710.405517578125 2709.672607421875 2708.683837890625 2708.010498046875 2705.4619140625 2703.322509765625 2704.15576171875 2700.70849609375 2700.268310546875 2700.278564453125 2699.504638671875 2702.759521484375 2701.979736328125 2698.129150390625 2694.98876953125 2682.951904296875 2673.20751953125 2662.20849609375 2652.9208984375 2639.02490234375 2630.2490234375 2623.89892578125 2616.5478515625 2609.3828125 2597.327392578125 2574.49609375 2562.6884765625 2552.504150390625 2543.760986328125 2536.458740234375 2529.32470703125 2522.55908203125 2516.440185546875 2509.656005859375 2504.069580078125 2497.815673828125 2492.880126953125 2487.659912109375 2482.873779296875 2479.87060546875 2476.6240234375 2475.52685546875 2476.202392578125 2475.46337890625 2472.877685546875 2469.749755859375 2468.5849609375 2464.376220703125 2457.547119140625 2450.594970703125 2444.392333984375 2439.60400390625 2436.40869140625 2435.075927734375 2434.26123046875 2434.439208984375 2434.28173828125 2432.5947265625 2428.938720703125 2424.928466796875 2420.897705078125 2417.133056640625 2412.37353515625 2407.9150390625 2403.29248046875 2398.37744140625 2393.7939453125 2388.42431640625 2382.033447265625 2377.386474609375 2373.249267578125 2368.006591796875 2363.8876953125 2359.371826171875 2355.922607421875 2352.87646484375 2349.49658203125 2346.343994140625 2344.5712890625 2342.5263671875 2340.855712890625 2338.255859375 2336.72265625 2334.759521484375 2331.41455078125 2328.767578125 2328.07373046875 2327.2958984375 2325.619140625 2324.53955078125 2321.93896484375 2317.658447265625 2316.9013671875 2313.39599609375 2311.588134765625 2310.8798828125 2310.46728515625 2310.25634765625 2310.335693359375 2310.8798828125
2674.66943359375 2671.58203125 2668.24658203125 2666.068603515625 2666.001220703125 2664.908935546875 2663.10546875 2660.71142578125 2658.433837890625 2656.232421875 2653.2265625 2651.33935546875 2649.037353515625 2647.354736328125 2645.806640625 2645.353271484375 2645.982177734375 2646.896728515625 2643.421142578125 2640.14794921875 2635.740478515625 2630.603515625 2628.743408203125 2628.36572265625 2626.726806640625 2624.58740234375 2622.633056640625 2619.8720703125 2617.81591796875 2617.27587890625 2616.162109375 2614.313720703125 2616.073486328125 2618.60107421875 2621.978271484375 2624.36181640625 2627.739990234375 2629.36376953125 2632.3388671875 2632.864990234375 2635.716796875 2641.51025390625 2645.33203125 2648.390625 2650.4765625 2652.50732421875 2652.40283203125 2651.993408203125 2648.271728515625 2641.336181640625 2638.1611328125 2636.27783203125 2634.56640625 2632.846923828125 2632.552001953125 2631.956298828125 2631.3564453125 2633.708740234375 2635.1416015625 2635.942138671875 2636.474365234375 2638.558349609375 2639.039306640625 2643.418212890625 2645.57373046875 2648.34765625 2666.658935546875 2693.56396484375 2697.361328125 2714.94189453125 2712.6328125 2709.512939453125 2705.568359375 2704.04736328125 2702.08203125 2700.894775390625 2700.851806640625 2701.746337890625 2700.28466796875 2699.35107421875 2697.076904296875 2694.51171875 2694.7861328125 2692.143310546875 2692.057373046875 2690.397216796875 2687.60498046875 2689.152587890625 2686.155517578125 2686.900634765625 2688.759521484375 2685.506591796875 2679.093017578125 2664.800048828125 2656.939208984375 2644.89404296875 2635.49169921875 2629.0576171875 2621.714599609375 2615.1904296875 2608.162841796875 2593.1083984375 2570.42236328125 2561.61572265625 2548.45068359375 2540.34619140625 2532.661376953125 2525.64599609375 2518.54052734375 2513.512939453125 2506.036865234375 2500.145263671875 2493.6845703125 2486.828857421875 2480.873779296875 2476.927001953125 2473.712890625 2471.1806640625 2470.887939453125 2470.556396484375 2469.512451171875 2468.112060546875 2467.749755859375 2462.4599609375 2455.50390625 2448.51318359375 2442.711669921875 2439.692138671875 2437.06982421875 2436.103515625 2435.024658203125 2433.47509765625 2433.68798828125 2433.395263671875 2430.277587890625 2426.24072265625 2422.013427734375 2417.423828125 2413.122802734375 2407.593505859375 2402.340576171875 2396.838134765625 2392.424560546875 2385.46630859375 2379.93701171875 2374.04150390625 2369.353515625 2365.5869140625 2360.581787109375 2357.24072265625 2353.2919921875 2349.893798828125 2346.990966796875 2343.950927734375 2342.110595703125 2341.2548828125 2339.66650390625 2337.71142578125 2334.9970703125 2332.509765625 2330.60595703125 2327.7666015625 2322.9375 2322.0673828125 2320.896484375 2319.22998046875 2317.272705078125 2314.834228515625 2311.94140625 2308.888427734375 2306.2373046875 2305.748779296875 2304.697998046875 2303.6904296875 2303.41650390625 2304.1357421875
2671.9619140625 2668.87353515625 2665.751953125 2663.6201171875 2661.693359375 2662.027099609375 2660.663330078125 2659.23828125 2657.125732421875 2654.855712890625 2652.41455078125 2650.297607421875 2649.598876953125 2648.12060546875 2644.853515625 2643.161376953125 2641.19287109375 2642.72900390625 2642.522705078125 2637.8232421875 2633.56689453125 2631.89697265625 2628.1689453125 2626.204833984375 2624.66015625 2621.92919921875 2619.39599609375 2617.021240234375 2613.849365234375 2611.775146484375 2610.949462890625 2609.83154296875 2610.5556640625 2613.478271484375 2615.7568359375 2618.0107421875 2619.77685546875 2622.56982421875 2625.268798828125 2626.857421875 2630.3759765625 2633.776123046875 2637.66162109375 2641.68212890625 2646.9453125 2648.40478515625 2649.088623046875 2646.197998046875 2643.252197265625 2637.9931640625 2633.989013671875 2630.68505859375 2629.082275390625 2627.487548828125 2627.04736328125 2625.944091796875 2625.66552734375 2627.645263671875 2628.488525390625 2628.62158203125 2629.08837890625 2630.212158203125 2632.572509765625 2636.654541015625 2638.239013671875 2640.142822265625 2655.08251953125 2671.6416015625 2688.239501953125 2706.585693359375 2704.862060546875 2702.597900390625 2698.769775390625 2695.15869140625 2693.398193359375 2691.715576171875 2691.355224609375 2692.174072265625 2692.515869140625 2690.814697265625 2689.516845703125 2686.124755859375 2685.5986328125 2683.836181640625 2683.197509765625 2681.6416015625 2677.166748046875 2672.403076171875 2675.690673828125 2676.4931640625 2677.28955078125 2676.646728515625 2674.857666015625 2668.755126953125 2658.50537109375 2649.506103515625 2640.50927734375 2633.55517578125 2626.785400390625 2619.94384765625 2613.83935546875 2603.58544921875 2581.159423828125 2565.20849609375 2556.311767578125 2547.65234375 2533.72607421875 2527.81396484375 2522.043212890625 2514.908935546875 2507.873046875 2500.931396484375 2493.3447265625 2487.178955078125 2481.606689453125 2476.695556640625 2471.17041015625 2469.547119140625 2466.60546875 2465.622802734375 2464.40673828125 2464.558349609375 2466.507080078125 2461.3505859375 2455.530517578125 2449.499755859375 2444.031982421875 2440.437255859375 2438.171142578125 2437.64306640625 2436.531494140625 2434.87744140625 2433.653076171875 2433.194580078125 2430.52734375 2426.9365234375 2422.091064453125 2417.409423828125 2412.33056640625 2407.05517578125 2401.550537109375 2395.959716796875 2391.29638671875 2385.362060546875 2378.620849609375 2372.536865234375 2367.4990234375 2362.508056640625 2358.68603515625 2354.192626953125 2351.77294921875 2347.60302734375 2345.609130859375 2343.300048828125 2341.248779296875 2340.00634765625 2338.1025390625 2336.41357421875 2333.430908203125 2331.226318359375 2327.952880859375 2324.685791015625 2320.487060546875 2317.412353515625 2316.614013671875 2315.879638671875 2313.017578125 2310.813232421875 2308.398193359375 2305.539794921875 2301.228515625 2300.439208984375 2299.39013671875 2298.243896484375 2297.550048828125 2297.712158203125
2669.38916015625 2666.86767578125 2663.92919921875 2661.2333984375 2659.1923828125 2658.02197265625 2657.710693359375 2656.214111328125 2654.547607421875 2653.702392578125 2652.159912109375 2649.621337890625 2648.8564453125 2648.46923828125 2646.61962890625 2645.753173828125 2641.0078125 2641.520263671875 2638.55078125 2635.6591796875 2633.45556640625 2630.69775390625 2629.943603515625 2624.938232421875 2623.004150390625 2620.142578125 2617.18798828125 2614.0419921875 2611.408203125 2608.62158203125 2605.90869140625 2605.071044921875 2605.2080078125 2608.002197265625 2610.177978515625 2611.48095703125 2612.973388671875 2616.075439453125 2618.37646484375 2620.357666015625 2624.06689453125 2626.189697265625 2630.06494140625 2635.40771484375 2643.1806640625 2644.650390625 2645.205322265625 2642.472412109375 2639.6923828125 2635.119140625 2630.613525390625 2626.62158203125 2624.306396484375 2622.967529296875 2621.192626953125 2620.00732421875 2619.395263671875 2621.444580078125 2621.892822265625 2621.5712890625 2622.382080078125 2623.018798828125 2625.913330078125 2628.26953125 2630.47216796875 2634.253173828125 2639.657470703125 2654.900390625 2669.000732421875 2686.12890625 2695.365478515625 2695.291748046875 2693.609130859375 2689.216064453125 2686.208740234375 2684.89453125 2684.4912109375 2683.43896484375 2683.494384765625 2682.528076171875 2679.5126953125 2677.529052734375 2676.720458984375 2674.75732421875 2673.62109375 2671.1318359375 2664.648681640625 2661.962890625 2661.895263671875 2663.479736328125 2665.062255859375 2666.075439453125 2665.172607421875 2667.127685546875 2663.14599609375 2653.03955078125 2645.29541015625 2637.6923828125 2630.47216796875 2622.969482421875 2616.7216796875 2611.166015625 2594.81787109375 2576.322265625 2570.182861328125 2562.111083984375 2539.08935546875 2531.3798828125 2524.383056640625 2516.58349609375 2509.4697265625 2502.69384765625 2494.912841796875 2488.56689453125 2482.988525390625 2477.21142578125 2472.35791015625 2469.01904296875 2466.367919921875 2463.954345703125 2462.464111328125 2463.600341796875 2464.503173828125 2459.344482421875 2454.730224609375 2451.921630859375 2447.66552734375 2442.564208984375 2438.439208984375 2436.85498046875 2436.72802734375 2437.301025390625 2434.9775390625 2432.1669921875 2428.7626953125 2425.002197265625 2420.070556640625 2414.494384765625 2409.208740234375 2404.068359375 2399.20849609375 2393.7529296875 2389.153076171875 2384.088623046875 2377.947265625 2371.056640625 2364.9482421875 2360.602294921875 2356.254150390625 2352.45458984375 2349.3369140625 2346.04931640625 2343.77294921875 2342.131103515625 2340.532470703125 2339.011474609375 2337.101318359375 2334.763671875 2330.60791015625 2327.05224609375 2323.54541015625 2322.304931640625 2316.99072265625 2313.197265625 2313.529052734375 2313.53466796875 2309.70849609375 2306.88232421875 2304.092529296875 2302.13330078125 2298.973876953125 2295.97119140625 2294.561767578125 2293.215576171875 2291.609619140625 2290.515625
2666.30517578125 2663.472412109375 2661.506103515625 2659.30029296875 2656.67529296875 2654.55078125 2654.272705078125 2653.453125 2651.903076171875 2650.152099609375 2649.984130859375 2647.935546875 2647.3876953125 2646.964111328125 2646.251708984375 2647.3857421875 2643.234130859375 2641.664794921875 2638.313232421875 2635.214111328125 2632.448974609375 2630.626220703125 2630.896728515625 2626.64453125 2621.24560546875 2618.332763671875 2615.569580078125 2612.0791015625 2609.0966796875 2606.171875 2602.896484375 2599.96630859375 2599.92041015625 2602.650390625 2604.4775390625 2605.341796875 2606.303466796875 2607.811767578125 2612.22119140625 2615.093505859375 2619.022705078125 2619.96435546875 2621.788330078125 2627.923583984375 2633.72509765625 2639.9462890625 2641.049560546875 2639.657470703125 2636.175537109375 2632.052490234375 2627.12109375 2623.491455078125 2620.4208984375 2618.594970703125 2617.00830078125 2615.7001953125 2614.087158203125 2615.174072265625 2615.511962890625 2614.482177734375 2615.79638671875 2616.576416015625 2618.363525390625 2620.553955078125 2622.7607421875 2622.7158203125 2622.08935546875 2631.485595703125 2647.7763671875 2664.458251953125 2687.35302734375 2686.52197265625 2684.4052734375 2682.51171875 2680.349853515625 2678.126708984375 2677.838134765625 2676.337646484375 2676.88818359375 2675.31396484375 2670.59130859375 2669.256591796875 2664.245361328125 2665.11328125 2663.246337890625 2658.531982421875 2655.172607421875 2653.184814453125 2650.930908203125 2651.78466796875 2649.070068359375 2648.015869140625 2648.771240234375 2657.10302734375 2655.629150390625 2658.585205078125 2650.85107421875 2642.431396484375 2633.413818359375 2625.7802734375 2620.64599609375 2614.9345703125 2604.729736328125 2590.062255859375 2576.28125 2569.351806640625 2559.95751953125 2546.89306640625 2536.62255859375 2522.385009765625 2513.600830078125 2505.26904296875 2498.892333984375 2492.35400390625 2485.608642578125 2479.54736328125 2474.036376953125 2470.376220703125 2466.6279296875 2464.25732421875 2462.5009765625 2462.9697265625 2460.89208984375 2455.45703125 2452.87548828125 2450.783447265625 2448.6337890625 2445.159912109375 2440.76904296875 2438.553955078125 2435.949951171875 2436.8466796875 2434.801513671875 2431.321533203125 2427.22119140625 2422.4267578125 2416.441162109375 2409.88623046875 2404.967041015625 2399.530029296875 2395.417236328125 2390.182861328125 2385.54833984375 2380.23193359375 2375.06494140625 2368.89306640625 2362.677978515625 2357.73828125 2354.032958984375 2349.650146484375 2347.02587890625 2343.948974609375 2341.271484375 2339.6806640625 2337.70947265625 2335.9345703125 2333.56201171875 2330.1923828125 2327.2138671875 2323.109375 2319.846435546875 2315.86474609375 2312.147216796875 2310.671142578125 2310.458251953125 2310.51220703125 2306.63916015625 2302.194580078125 2299.667724609375 2297.928466796875 2295.740478515625 2292.220703125 2290.11376953125 2288.11865234375 2285.676513671875 2284.099365234375
2663.232666015625 2661.03759765625 2658.561279296875 2656.66552734375 2654.9765625 2653.219970703125 2650.696533203125 2649.3359375 2648.7431640625 2646.8828125 2645.86767578125 2644.670654296875 2644.361572265625 2644.08447265625 2643.7431640625 2644.719970703125 2642.556884765625 2639.32421875 2635.7265625 2632.8671875 2630.890380859375 2629.893310546875 2629.974609375 2627.342041015625 2621.612548828125 2616.43505859375 2613.859130859375 2610.704345703125 2608.135986328125 2604.10400390625 2600.596435546875 2597.07275390625 2595.191162109375 2597.540283203125 2598.90087890625 2599.5224609375 2599.95556640625 2601.032958984375 2605.40380859375 2606.89501953125 2610.320556640625 2612.852783203125 2614.83642578125 2618.85498046875 2625.64111328125 2630.73828125 2634.04248046875 2636.7978515625 2635.40771484375 2630.740478515625 2625.81298828125 2621.980712890625 2618.25927734375 2615.055419921875 2612.907958984375 2610.926513671875 2609.125 2609.2294921875 2608.705322265625 2607.681884765625 2609.47705078125 2610.011474609375 2611.4423828125 2612.631591796875 2613.66943359375 2614.279541015625 2613.342041015625 2616.428955078125 2622.371826171875 2650.861328125 2667.639404296875 2677.709228515625 2677.150390625 2675.103271484375 2673.62109375 2671.416259765625 2670.64453125 2670.388671875 2668.192138671875 2663.659912109375 2660.533935546875 2658.25341796875 2657.20751953125 2655.17041015625 2654.716064453125 2650.81640625 2648.077392578125 2646.069091796875 2644.228759765625 2642.0546875 2641.461181640625 2641.076171875 2639.876708984375 2639.49169921875 2638.865234375 2637.85400390625 2641.029052734375 2641.91357421875 2638.941162109375 2634.13037109375 2622.965576171875 2614.766845703125 2605.09619140625 2597.090087890625 2590.80126953125 2582.25048828125 2575.8984375 2568.37939453125 2557.04443359375 2543.66259765625 2527.265380859375 2516.09423828125 2502.826904296875 2496.241455078125 2490.03466796875 2483.936279296875 2479.0068359375 2474.38037109375 2469.63720703125 2464.953369140625 2462.61767578125 2459.677978515625 2455.74755859375 2452.435302734375 2450.359619140625 2448.2470703125 2446.3125 2444.02783203125 2441.77392578125 2439.36669921875 2434.4228515625 2433.4423828125 2432.3349609375 2428.738037109375 2424.13623046875 2418.52294921875 2412.4287109375 2406.2568359375 2399.808349609375 2395.69580078125 2390.747802734375 2385.33935546875 2380.590087890625 2375.719970703125 2370.10693359375 2364.677978515625 2359.275634765625 2354.436279296875 2350.884521484375 2347.9326171875 2344.554931640625 2342.100341796875 2339.2119140625 2336.423828125 2333.887451171875 2331.226318359375 2329.379638671875 2325.830078125 2321.6396484375 2318.835205078125 2316.231201171875 2313.369384765625 2310.1513671875 2308.58935546875 2306.458251953125 2306.02099609375 2302.358642578125 2297.83837890625 2295.05029296875 2293.044189453125 2291.051025390625 2289.2216796875 2286.6767578125 2284.04345703125 2281.428466796875 2278.634765625
2661.617431640625 2660.340087890625 2658.612548828125 2656.101806640625 2653.544189453125 2651.58447265625 2649.32080078125 2647.30859375 2644.96923828125 2643.5859375 2641.9697265625 2641.693603515625 2641.12451171875 2640.622802734375 2640.7607421875 2640.85595703125 2639.34765625 2636.569580078125 2632.88330078125 2630.63134765625 2628.52294921875 2627.191162109375 2627.306640625 2626.53759765625 2622.531494140625 2616.03173828125 2610.911865234375 2607.559326171875 2604.498779296875 2601.420166015625 2598.8837890625 2594.840087890625 2592.753173828125 2592.226806640625 2593.47314453125 2594.328857421875 2594.838134765625 2595.7109375 2597.82373046875 2598.919189453125 2603 2605.739013671875 2606.950927734375 2610.195556640625 2616.6767578125 2623.256103515625 2630.53759765625 2632.951171875 2633.89501953125 2631.46923828125 2625.037109375 2621.1005859375 2617.704345703125 2614.92236328125 2610.90185546875 2607.024658203125 2604.852783203125 2603.335693359375 2602.343017578125 2601.169921875 2602.705322265625 2603.11669921875 2604.502685546875 2605.37255859375 2606.1484375 2605.96826171875 2606.77294921875 2609.526123046875 2614.341064453125 2622.9921875 2639.929931640625 2665.031494140625 2667.371337890625 2669.096923828125 2666.72021484375 2665.99755859375 2665.009033203125 2663.82763671875 2662.732421875 2657.95263671875 2654.21044921875 2651.322021484375 2649.217529296875 2648.10595703125 2646.10791015625 2643.698486328125 2641.217529296875 2639.1396484375 2637.729248046875 2636.058837890625 2634.975830078125 2634.380126953125 2632.568359375 2630.66259765625 2630.32470703125 2630.2490234375 2630.030029296875 2632.7177734375 2630.201904296875 2633.082275390625 2625.383056640625 2620.989990234375 2612.1875 2604.643798828125 2596.048095703125 2590.144287109375 2583.9375 2576.723388671875 2566.283203125 2555.1181640625 2542.716796875 2527.1259765625 2517.920166015625 2506.921142578125 2494.857666015625 2488.787841796875 2484.134765625 2478.775390625 2473.34033203125 2468.067138671875 2463.80712890625 2459.03515625 2454.846923828125 2450.7998046875 2448.390380859375 2445.530517578125 2442.936767578125 2440.00341796875 2438.353271484375 2437.22119140625 2435.11474609375 2431.260009765625 2427.706298828125 2423.94384765625 2419.452392578125 2414.490234375 2408.71728515625 2402.97119140625 2397.552490234375 2390.938232421875 2386.31591796875 2382.2236328125 2377.51953125 2372.229736328125 2366.46728515625 2361.17138671875 2356.333984375 2352.9296875 2347.672607421875 2345.138427734375 2342.0615234375 2339.3798828125 2337.953125 2334.341796875 2331.48828125 2326.974365234375 2323.944580078125 2320.697998046875 2317.602783203125 2315.391845703125 2313.383544921875 2310.773681640625 2306.94140625 2303.33642578125 2302.04052734375 2300.136474609375 2297.894287109375 2293.137939453125 2290.62548828125 2288.277099609375 2285.45654296875 2284.544677734375 2283.02880859375 2280.891357421875 2277.232666015625 2273.896484375
2661.145751953125 2659.79345703125 2657.90771484375 2655.7841796875 2653.43408203125 2650.83447265625 2648.678955078125 2646.412109375 2643.79248046875 2641.884033203125 2640.10400390625 2638.802001953125 2637.874755859375 2637.8125 2637.500244140625 2636.513916015625 2635.322265625 2633.83203125 2631.58349609375 2628.14013671875 2625.503173828125 2624.5595703125 2624.9521484375 2624.269775390625 2621.05078125 2616.9345703125 2610.6572265625 2605.171630859375 2602.136962890625 2599.771728515625 2597.19677734375 2593.345703125 2590.24560546875 2588.918212890625 2588.823974609375 2588.380126953125 2589.519287109375 2591.823486328125 2591.3271484375 2593.556396484375 2595.92724609375 2598.588623046875 2599.9580078125 2602.259033203125 2608.033935546875 2616.5498046875 2620.58251953125 2625.712646484375 2632.169189453125 2631.860107421875 2627.49560546875 2619.60009765625 2614.365478515625 2611.395263671875 2608.189453125 2603.52001953125 2599.56298828125 2597.3623046875 2595.835205078125 2594.69091796875 2595.974365234375 2596.260986328125 2597.421630859375 2598.232421875 2598.719482421875 2598.656005859375 2600.24462890625 2602.4453125 2602.77490234375 2612.232421875 2616.265380859375 2630.64404296875 2657.2197265625 2656.33740234375 2656.525634765625 2658.7529296875 2658.460205078125 2658.06298828125 2656.392578125 2651.952392578125 2648.302490234375 2645.0947265625 2642.846923828125 2640.947265625 2638.70556640625 2636.920654296875 2634.678955078125 2632.730224609375 2631.57568359375 2629.9521484375 2627.606201171875 2627.159912109375 2625.468994140625 2623.81103515625 2623.808837890625 2623.763916015625 2623.735107421875 2622.34326171875 2621.60009765625 2621.012451171875 2626.607177734375 2619.403564453125 2612.1240234375 2605.423828125 2598.113525390625 2593.133056640625 2585.765380859375 2577.8125 2570.766357421875 2560.182861328125 2553.6279296875 2538.542724609375 2531.56005859375 2520.41162109375 2508.41552734375 2498.3642578125 2489.83203125 2483.7705078125 2476.98828125 2470.68115234375 2465.2646484375 2460.27978515625 2455.8232421875 2452.38623046875 2447.5654296875 2444.568359375 2442.1875 2439.106689453125 2436.6787109375 2434.343017578125 2431.1904296875 2428.291748046875 2424.346923828125 2420.375732421875 2415.52001953125 2410.813720703125 2406.137939453125 2400.799072265625 2395.552490234375 2390.205322265625 2384.6474609375 2379.1572265625 2374.780517578125 2369.64013671875 2364.28076171875 2358.933837890625 2354.4833984375 2349.818115234375 2345.73193359375 2342.919189453125 2340.39111328125 2337.7666015625 2334.79833984375 2333.60693359375 2328.624267578125 2324.88232421875 2321.67236328125 2318.509521484375 2315.232177734375 2312.341796875 2311.019287109375 2307.913818359375 2301.86865234375 2297.809326171875 2296.27587890625 2294.5888671875 2292.5341796875 2290.454345703125 2286.685791015625 2284.625732421875 2282.017822265625 2278.87451171875 2278.341064453125 2277.001953125 2274.00830078125 2270.83251953125
2662.2314453125 2659.484375 2657.877685546875 2655.615234375 2653.31103515625 2650.69873046875 2648.572998046875 2646.676513671875 2644.22900390625 2642.240234375 2640.252685546875 2638.435302734375 2636.56640625 2634.4248046875 2633.4951171875 2632.41259765625 2632.016845703125 2630.4228515625 2631.114013671875 2627.157958984375 2622.459716796875 2620.646484375 2620.2861328125 2621.12255859375 2620.290283203125 2616.12158203125 2610.810302734375 2606.20947265625 2602.27587890625 2598.96728515625 2596.17529296875 2592.67724609375 2588.7021484375 2586.95947265625 2585.6875 2584.844482421875 2585.17626953125 2587.7958984375 2589.333251953125 2588.374755859375 2590.18115234375 2592.048095703125 2592.578125 2595.896484375 2601.397216796875 2609.767822265625 2609.927490234375 2618.6748046875 2621.0185546875 2623.77197265625 2623.68408203125 2619.073974609375 2612.801513671875 2606.203857421875 2601.919189453125 2598.099365234375 2595.270263671875 2592.14208984375 2589.255859375 2587.982421875 2589.41748046875 2589.847412109375 2590.8115234375 2591.325439453125 2591.763427734375 2591.853515625 2593.4501953125 2595.110595703125 2595.5302734375 2599.165771484375 2607.765625 2620.1650390625 2641.708740234375 2649.123291015625 2649.792724609375 2649.672119140625 2649.61474609375 2649.5615234375 2648.095703125 2645.152099609375 2642.29638671875 2639.420166015625 2636.232666015625 2635.34033203125 2632.5888671875 2630.51318359375 2628.404541015625 2627.37890625 2625.9521484375 2623.83544921875 2621.3115234375 2619.67578125 2618.5703125 2616.977783203125 2617.24169921875 2617.702392578125 2616.17529296875 2614.8671875 2613.448486328125 2612.353271484375 2614.94091796875 2617.724853515625 2613.73095703125 2606.486328125 2601.43408203125 2596.958984375 2587.319091796875 2580.26904296875 2572.52685546875 2565.333251953125 2556.655517578125 2546.200927734375 2536.870361328125 2528.2314453125 2518.47705078125 2504.929443359375 2494.691650390625 2487.508544921875 2480.46240234375 2474.026123046875 2468.322998046875 2463.0537109375 2458.822265625 2454.635986328125 2449.113037109375 2445.274658203125 2441.62451171875 2439.76171875 2436.314453125 2433.77197265625 2431.075927734375 2426.912109375 2422.1669921875 2418.57421875 2414.322265625 2409.50146484375 2405.08984375 2401.220947265625 2396.148193359375 2390.80712890625 2385.21875 2379.632080078125 2373.7998046875 2369.19384765625 2363.68310546875 2358.340087890625 2353.105712890625 2348.522216796875 2345.013427734375 2342.1435546875 2340.299072265625 2336.356201171875 2334.427978515625 2330.2744140625 2326.94775390625 2322.902587890625 2318.431884765625 2314.4931640625 2312.4091796875 2309.6455078125 2307.448974609375 2304.212646484375 2299.19921875 2292.693603515625 2290.23291015625 2288.983642578125 2286.54150390625 2285.280029296875 2283.079345703125 2280.2099609375 2277.569580078125 2274.830078125 2273.08544921875 2272.50146484375 2270.091796875 2266.968505859375
2664.4287109375 2661.196044921875 2658.241455078125 2655.595947265625 2653.46923828125 2651.6591796875 2650.002197265625 2647.5439453125 2644.9658203125 2642.58251953125 2640.454833984375 2638.32080078125 2636.24658203125 2634.357421875 2632.0498046875 2630.62939453125 2629.445068359375 2628.0693359375 2628.04052734375 2626.60595703125 2622.907958984375 2618.411865234375 2617.005126953125 2616.4296875 2616.59326171875 2615.017578125 2608.55322265625 2605.375 2602.02783203125 2599.196044921875 2595.0712890625 2591.20849609375 2587.696533203125 2585.1044921875 2583.677490234375 2582.864501953125 2582.277099609375 2583.33740234375 2584.66796875 2586.608642578125 2584.90576171875 2585.7041015625 2586.22607421875 2588.541259765625 2593.52197265625 2596.250732421875 2600.322509765625 2605.865966796875 2607.628662109375 2612.416748046875 2610.586669921875 2607.974609375 2609.792236328125 2603.9560546875 2596.28955078125 2591.964111328125 2588.604736328125 2585.7919921875 2582.53515625 2582.264892578125 2583.124755859375 2583.1962890625 2583.93115234375 2584.731689453125 2584.6865234375 2585.2373046875 2586.3837890625 2587.60791015625 2589.063232421875 2592.875 2594.836181640625 2608.5703125 2619.802734375 2638.412841796875 2642.642333984375 2643.854248046875 2643.620849609375 2642.654541015625 2642.196044921875 2639.454833984375 2637.0966796875 2635.34423828125 2631.798828125 2629.702392578125 2626.568359375 2624.904052734375 2622.650146484375 2621.32373046875 2620.51708984375 2617.77001953125 2616.9306640625 2614.19970703125 2612.173095703125 2610.961181640625 2610.607177734375 2609.51806640625 2609.108642578125 2607.6572265625 2606.367431640625 2605.206787109375 2604.1689453125 2607.63671875 2607.513916015625 2609.71875 2605.7021484375 2600.6396484375 2593.4931640625 2586.414306640625 2578.019287109375 2569.884033203125 2560.154052734375 2553.02001953125 2545.922607421875 2535.9287109375 2524.45458984375 2519.2939453125 2510.665283203125 2495.989501953125 2491.166748046875 2480.099853515625 2473.672119140625 2468.112060546875 2462.74267578125 2456.984130859375 2451.84375 2446.996337890625 2442.79150390625 2440.140380859375 2435.992919921875 2433.46484375 2430.384033203125 2426.60693359375 2421.804443359375 2416.907958984375 2412.958984375 2408.875 2405.124755859375 2400.5576171875 2396.531005859375 2392.448974609375 2386.833740234375 2381.50927734375 2375.97607421875 2370.95654296875 2365.3515625 2359.656494140625 2353.764892578125 2348.38720703125 2344.3359375 2340.937744140625 2338.057373046875 2335.47802734375 2333.2978515625 2330.569091796875 2326.46875 2321.866943359375 2316.4296875 2311.520751953125 2307.350830078125 2304.61376953125 2301.666015625 2299.326171875 2294.322998046875 2289.78466796875 2283.98095703125 2282.61083984375 2281.053466796875 2280.54345703125 2277.92822265625 2275.4970703125 2272.2763671875 2270.165771484375 2267.644287109375 2267.9560546875 2266.689208984375 2264.376708984375
2667.250732421875 2663.746337890625 2661.30615234375 2658.624267578125 2656.4111328125 2653.304443359375 2650.347900390625 2648.4970703125 2645.59716796875 2643.208251953125 2640.921142578125 2638.661865234375 2637.057373046875 2635.849609375 2633.21923828125 2630.649658203125 2628.09716796875 2625.90869140625 2624.285888671875 2623.614013671875 2623.1025390625 2620.095703125 2616.8447265625 2615.69140625 2613.35205078125 2611.09814453125 2606.06494140625 2601.79248046875 2599.62841796875 2596.766845703125 2593.522216796875 2590.829833984375 2586.7197265625 2583.418701171875 2582.169189453125 2581.17333984375 2580.931396484375 2580.700439453125 2580.62548828125 2582.0888671875 2583.243408203125 2582.107177734375 2581.276123046875 2581.90869140625 2585.16357421875 2589.43603515625 2591.97216796875 2593.2373046875 2594.84033203125 2597.237548828125 2600.150390625 2600.62939453125 2599.28857421875 2597.11865234375 2594.15869140625 2586.318115234375 2581.302734375 2577.74072265625 2574.90771484375 2576.342529296875 2576.69677734375 2576.80126953125 2577.190185546875 2578.117431640625 2577.681396484375 2578.670166015625 2579.41943359375 2580.563720703125 2582.56787109375 2584.711181640625 2587.13916015625 2597.837158203125 2605.399169921875 2619.051513671875 2636.263427734375 2637.718994140625 2638.058837890625 2635.927734375 2636.04638671875 2633.956298828125 2632.06494140625 2630.6298828125 2629.166259765625 2626.44140625 2622.79345703125 2619.116943359375 2616.758544921875 2615.362548828125 2614.2919921875 2612.504638671875 2611.6142578125 2609.927490234375 2607.70849609375 2606.033935546875 2603.77392578125 2602.697021484375 2602.441162109375 2600.950927734375 2599.452392578125 2598.3857421875 2596.87109375 2596.504638671875 2597.423828125 2598.62548828125 2601.5302734375 2605.321533203125 2599.1923828125 2593.272216796875 2581.828857421875 2574.283203125 2564.813232421875 2555.87158203125 2548.9892578125 2541.977783203125 2534.659423828125 2528.29296875 2520.71875 2508.09814453125 2497.850341796875 2490.478759765625 2479.926025390625 2473.066162109375 2466.077392578125 2460.271728515625 2454.83251953125 2450.179443359375 2445.89697265625 2441.565185546875 2437.759765625 2433.68994140625 2431.421875 2427.970458984375 2423.908935546875 2419.28662109375 2413.677490234375 2407.26806640625 2403.423583984375 2398.500244140625 2395.382568359375 2391.44384765625 2387.57080078125 2382.653564453125 2377.861328125 2373.312744140625 2367.98828125 2361.689208984375 2355.87744140625 2349.721923828125 2344.917236328125 2339.938720703125 2337.257080078125 2335.7197265625 2333.958984375 2330.77392578125 2326.384765625 2321.760498046875 2316.1494140625 2309.946533203125 2303.18701171875 2298.533935546875 2295.8994140625 2294.2021484375 2290.374267578125 2285.272705078125 2280.82861328125 2276.580078125 2275.203125 2274.529296875 2273.281982421875 2270.178466796875 2266.5234375 2264.593017578125 2261.226318359375 2260.3125 2260.4765625 2258.88525390625
2670.697509765625 2667.16845703125 2663.4755859375 2660.21728515625 2657.697998046875 2655.03857421875 2652.092529296875 2649.67919921875 2647.130126953125 2644.70703125 2642.90771484375 2641.306396484375 2639.114501953125 2636.698974609375 2633.856689453125 2630.84326171875 2627.672607421875 2624.23974609375 2622.93994140625 2621.38671875 2619.0537109375 2617.951904296875 2616.45947265625 2616.666015625 2612.111083984375 2607.2041015625 2601.18798828125 2597.94775390625 2596.6748046875 2594.58349609375 2591.55078125 2588.488037109375 2585.23388671875 2582.1005859375 2580.471435546875 2579.625244140625 2579.58251953125 2580.3623046875 2579.27880859375 2579.013427734375 2579.169677734375 2579.857421875 2579.075439453125 2577.317138671875 2579.771484375 2581.894287109375 2581.466552734375 2584.053955078125 2586.379638671875 2591.452392578125 2593.82275390625 2593.83935546875 2592.31201171875 2589.114501953125 2584.52490234375 2579.048828125 2575.202392578125 2572.459228515625 2569.1572265625 2570.215576171875 2570.287353515625 2570.57177734375 2570.9013671875 2571.4130859375 2571.181884765625 2571.884033203125 2572.531005859375 2573.789794921875 2575.646484375 2577.830810546875 2579.826904296875 2583.73876953125 2599.54052734375 2605.378662109375 2627.89892578125 2631.434326171875 2632.96142578125 2631.59814453125 2630.764892578125 2627.575439453125 2626.447509765625 2625.264404296875 2623.974609375 2622.807861328125 2621.505859375 2619.170166015625 2615.02685546875 2611.067626953125 2608.234375 2606.866943359375 2606.056396484375 2605.75537109375 2605.726806640625 2602.228271484375 2600.24658203125 2596.834228515625 2595.37255859375 2594.019287109375 2592.69091796875 2591.4892578125 2589.697998046875 2589.550537109375 2590.625244140625 2591.12060546875 2594.7685546875 2600.4228515625 2600.588623046875 2597.855712890625 2592.03173828125 2581.048828125 2568.068115234375 2559.365966796875 2552.397705078125 2545.474365234375 2538.1416015625 2531.60107421875 2524.510009765625 2513.823974609375 2505.187255859375 2495.8564453125 2486.46044921875 2480.693603515625 2472.40283203125 2465.111083984375 2460.33935546875 2455.252197265625 2449.532470703125 2444.646240234375 2440.498779296875 2437.159912109375 2433.09228515625 2430.41455078125 2426.24462890625 2421.378662109375 2417.01220703125 2412.283447265625 2407.22705078125 2401.712158203125 2396.062255859375 2391.286376953125 2386.565673828125 2381.208251953125 2378.045654296875 2374.21533203125 2369.5439453125 2363.72412109375 2358.50390625 2352.636962890625 2346.947998046875 2341.310302734375 2335.68896484375 2332.984619140625 2331.43310546875 2328.706298828125 2324.341796875 2318.71435546875 2313.160400390625 2307.48583984375 2301.541015625 2295.160400390625 2291.352783203125 2288.760986328125 2285.068115234375 2280.55419921875 2275.96875 2272.4150390625 2270.1044921875 2268.455322265625 2266.88916015625 2264.504638671875 2261.47314453125 2257.88671875 2254.7109375 2252.964599609375 2252.349853515625 2250.744140625
2674.564453125 2670.20751953125 2666.59912109375 2663.04345703125 2659.929443359375 2657.4658203125 2654.968994140625 2652.19091796875 2649.52294921875 2646.732177734375 2644.239501953125 2641.973876953125 2639.57861328125 2637.06689453125 2633.946533203125 2630.2783203125 2626.90234375 2623.80322265625 2622.0244140625 2620.469970703125 2619.0986328125 2617.683349609375 2616.1376953125 2614.851806640625 2609.61962890625 2603.55859375 2596.766845703125 2593.044189453125 2592.83447265625 2591.100341796875 2588.7587890625 2585.7880859375 2582.589599609375 2580.208251953125 2578.436767578125 2577.51904296875 2577.376708984375 2578.508544921875 2579.192138671875 2578.55126953125 2575.7919921875 2577.161376953125 2577.617919921875 2576.07861328125 2575.243408203125 2575.44384765625 2575.554443359375 2578.0908203125 2580.537109375 2583.405029296875 2586.093017578125 2585.20458984375 2584.20751953125 2581.943603515625 2576.874755859375 2573.556396484375 2568.948486328125 2566.311767578125 2563.61572265625 2564.16845703125 2564.143798828125 2564.268798828125 2564.291259765625 2564.545166015625 2564.3056640625 2564.352783203125 2565.76123046875 2566.84814453125 2568.58203125 2570.666015625 2573.4111328125 2576.79296875 2587.656982421875 2594.570068359375 2608.130126953125 2620.396240234375 2628.40673828125 2628.951171875 2626.756591796875 2623.333984375 2620.02587890625 2620.87548828125 2618.5498046875 2617.554931640625 2616.906005859375 2615.037109375 2613.0595703125 2610.75244140625 2608.32666015625 2605.169921875 2601.810546875 2601.6796875 2599.558837890625 2596.686767578125 2593.16357421875 2590.5576171875 2588.911865234375 2586.14208984375 2586.137939453125 2584.596435546875 2584.242431640625 2583.198486328125 2582.776611328125 2584.340576171875 2585.48291015625 2587.3232421875 2593.16357421875 2598.525146484375 2596.26904296875 2586.211669921875 2573.431640625 2563.91064453125 2555.599365234375 2548.688232421875 2541.275634765625 2534.731201171875 2527.298095703125 2519.8505859375 2513.19970703125 2503.795166015625 2498.806396484375 2490.24755859375 2480.23095703125 2470.99658203125 2466.773193359375 2461.66162109375 2454.273681640625 2448.711669921875 2443.338134765625 2438.074951171875 2434.60302734375 2431.39111328125 2427.8720703125 2424.37158203125 2420.633544921875 2416.365478515625 2411.444091796875 2405.656982421875 2400.7294921875 2395.521728515625 2390.213623046875 2384.843994140625 2379.760986328125 2373.982177734375 2369.283935546875 2364.284912109375 2358.68408203125 2352.375 2346.266357421875 2341.033935546875 2335.71337890625 2331.293701171875 2326.972412109375 2324.812744140625 2320.853515625 2315.285400390625 2308.990478515625 2303.7314453125 2297.89306640625 2291.876708984375 2286.42724609375 2283.29541015625 2279.135498046875 2278.1181640625 2271.942138671875 2267.11083984375 2264.663330078125 2263.421630859375 2261.26953125 2258.6923828125 2255.6337890625 2251.76953125 2248.401123046875 2246.7626953125 2245.016357421875 2243.80517578125
2677.84423828125 2674.028564453125 2669.930419921875 2666.814208984375 2663.44140625 2660.042724609375 2657.1845703125 2654.4501953125 2651.430419921875 2648.414794921875 2645.87744140625 2643.607421875 2641.2421875 2639.29736328125 2636.46044921875 2633.2255859375 2629.157470703125 2625.190673828125 2622.033935546875 2619.7041015625 2618.9521484375 2617.482177734375 2616.47021484375 2613.416259765625 2605.103271484375 2598.79296875 2593.929931640625 2588.32666015625 2587.2109375 2586.52734375 2585.067138671875 2583.862548828125 2581.146484375 2578.801513671875 2576.65576171875 2575.55078125 2575.073486328125 2573.982421875 2576.355224609375 2576.337890625 2574.893310546875 2573.343505859375 2574.352783203125 2574.0478515625 2572.6884765625 2570.532958984375 2569.986328125 2571.003662109375 2573.82666015625 2575.425537109375 2575.86767578125 2576.406005859375 2575.93310546875 2573.6220703125 2570.49609375 2567.757080078125 2563.077392578125 2559.818359375 2557.843017578125 2558.172607421875 2558.219482421875 2558.282958984375 2558.238037109375 2558.201171875 2557.664794921875 2557.683349609375 2558.59423828125 2559.4130859375 2561.4130859375 2563.9658203125 2566.745849609375 2569.8798828125 2576.713134765625 2586.0009765625 2595.783935546875 2606.5966796875 2623.70654296875 2624.341064453125 2623.91748046875 2620.904052734375 2617.3583984375 2615.917236328125 2618.566162109375 2615.511962890625 2612.457763671875 2608.811767578125 2606.557861328125 2605.681640625 2604.611083984375 2602.81982421875 2600.2998046875 2597.100341796875 2593.427734375 2590.63134765625 2587.60986328125 2585.591552734375 2583.294677734375 2581.20458984375 2579.638427734375 2578.721435546875 2577.56884765625 2575.48486328125 2576.903564453125 2577.80224609375 2577.849365234375 2580.2587890625 2581.826904296875 2585.84130859375 2588.1708984375 2589.530029296875 2579.560546875 2570.471435546875 2559.239013671875 2550.5859375 2543.27783203125 2536.17626953125 2528.037109375 2521.969482421875 2514.17822265625 2507.4677734375 2500.656982421875 2492.329345703125 2486.296630859375 2477.553466796875 2472.43359375 2466.7568359375 2461.3095703125 2453.434326171875 2447.350341796875 2442.275634765625 2437.583740234375 2432.869140625 2428.525146484375 2425.065673828125 2421.982666015625 2418.24267578125 2413.9580078125 2409.5322265625 2404.146240234375 2398.8134765625 2392.82373046875 2386.661865234375 2381.2021484375 2376.82763671875 2370.99951171875 2366.262451171875 2359.412841796875 2352.8251953125 2345.951171875 2340.139404296875 2335.22021484375 2331.20361328125 2324.880126953125 2318.765380859375 2315.359130859375 2310.447998046875 2304.61181640625 2298.652587890625 2293.856201171875 2288.2431640625 2283.323974609375 2277.55322265625 2274.707763671875 2271.40576171875 2266.8447265625 2263.4521484375 2260.806396484375 2258.548095703125 2256.8125 2254.16845703125 2249.981689453125 2246.0634765625 2243.790771484375 2242.060546875 2240.314208984375 2238.560546875
2680.940185546875 2676.8173828125 2673.322509765625 2669.668212890625 2665.75830078125 2662.815673828125 2659.510009765625 2656.5361328125 2653.190185546875 2649.631103515625 2647.327880859375 2644.535888671875 2641.82080078125 2640.076171875 2638.46728515625 2636.56005859375 2633.54541015625 2630.58642578125 2627.533447265625 2623.198974609375 2619.802490234375 2617.037109375 2614.5009765625 2611.30224609375 2604.117919921875 2596.2041015625 2591.407470703125 2588.195068359375 2586.04052734375 2583.32763671875 2582.343505859375 2580.868408203125 2578.61865234375 2576.583984375 2574.858642578125 2574.587890625 2573.945068359375 2572.509521484375 2573.0732421875 2573.14697265625 2571.544189453125 2569.365966796875 2569.556396484375 2570.44091796875 2570.854248046875 2568.929931640625 2567.437744140625 2565.69970703125 2566.203369140625 2567.80419921875 2568.5185546875 2569.84912109375 2568.203369140625 2567.224853515625 2563.841064453125 2558.99951171875 2554.356689453125 2551.83056640625 2551.050537109375 2552.475341796875 2552.557373046875 2552.676025390625 2552.461181640625 2552.1396484375 2552.125244140625 2552.561279296875 2552.4814453125 2552.741455078125 2555.112060546875 2557.517333984375 2560.2646484375 2563.548095703125 2568.946533203125 2578.41845703125 2588.705078125 2609.42578125 2617.5712890625 2619.77197265625 2619.43017578125 2617.385009765625 2614.22021484375 2611.9970703125 2613.3154296875 2612.183349609375 2609.534423828125 2606.85888671875 2604.00732421875 2601.282470703125 2599.7470703125 2597.18017578125 2595.368408203125 2592.164794921875 2587.4091796875 2583.8125 2581.599609375 2580.422607421875 2578.52490234375 2576.072509765625 2574.491943359375 2572.747802734375 2571.16552734375 2569.08349609375 2569.095947265625 2570.32421875 2571.07958984375 2573.7080078125 2571.574951171875 2576.733642578125 2581.636474609375 2586.230224609375 2582.156494140625 2571.394775390625 2561.42333984375 2553.21435546875 2545.719970703125 2537.210205078125 2531.5068359375 2521.277587890625 2515.017578125 2507.26708984375 2502.464599609375 2496.081787109375 2489.83203125 2483.555419921875 2477.708984375 2471.93603515625 2466.91259765625 2459.720947265625 2452.541748046875 2445.966552734375 2440.562255859375 2436.13427734375 2431.90087890625 2427.71240234375 2423.204833984375 2419.110595703125 2414.80126953125 2410.7255859375 2405.644775390625 2400.65185546875 2394.850341796875 2388.38134765625 2382.06201171875 2377.386474609375 2373.759033203125 2367.795654296875 2362.91748046875 2356.370849609375 2345.99609375 2340.620361328125 2334.2314453125 2330.409423828125 2325.22412109375 2317.44921875 2309.500244140625 2305.447021484375 2301.268798828125 2294.237060546875 2288.343505859375 2283.32177734375 2278.718017578125 2274.06494140625 2269.166259765625 2266.650146484375 2261.76171875 2259.148193359375 2256.224853515625 2252.8203125 2251.708251953125 2249.469970703125 2246.43310546875 2242.478759765625 2239.263427734375 2237.920654296875 2236.008544921875 2233.667236328125
2684.163330078125 2680.18701171875 2675.913330078125 2672.15234375 2668.675537109375 2665.47705078125 2661.763916015625 2658.02099609375 2654.62255859375 2650.399169921875 2647.592041015625 2645.48583984375 2643.39453125 2640.851806640625 2639.384033203125 2638.103515625 2636.90869140625 2635.2890625 2633.20947265625 2629.716796875 2624.52001953125 2619.12646484375 2614.37353515625 2608.977783203125 2601.3515625 2595.466064453125 2590.936767578125 2587.613037109375 2585.017822265625 2582.674072265625 2580.610595703125 2578.548095703125 2577.523193359375 2575.303466796875 2573.7578125 2571.994873046875 2571.876220703125 2571.68994140625 2570.637451171875 2569.7431640625 2569.458251953125 2568.616943359375 2566.504150390625 2566.872802734375 2567.7529296875 2566.926025390625 2565.02001953125 2563.521484375 2561.331298828125 2559.793701171875 2560.569580078125 2563.077392578125 2560.886962890625 2557.836669921875 2554.201171875 2550.89697265625 2547.412841796875 2544.751708984375 2544.3935546875 2546.645263671875 2546.98095703125 2547.3759765625 2546.79052734375 2546.927734375 2546.17431640625 2546.315673828125 2546.911376953125 2547.1181640625 2548.76806640625 2551.72216796875 2554.923828125 2559.247314453125 2563.9208984375 2573.728515625 2581.734619140625 2599.567138671875 2607.81689453125 2609.4853515625 2614.43505859375 2612.736083984375 2611.9111328125 2609.4853515625 2608.013427734375 2609.194580078125 2607.466796875 2604.744140625 2602.189453125 2598.8076171875 2596.324462890625 2593.710205078125 2591.38671875 2588.729736328125 2584.551513671875 2582.436767578125 2579.560546875 2576.735595703125 2574.786865234375 2572.596435546875 2569.4130859375 2569.01806640625 2566.708984375 2563.95361328125 2562.749755859375 2562.9853515625 2563.87158203125 2565.7939453125 2566.35693359375 2567.969970703125 2570.598388671875 2576.616943359375 2578.32421875 2573.619873046875 2567.23291015625 2556.95458984375 2547.803955078125 2538.264404296875 2530.299072265625 2522.64501953125 2515.7626953125 2508.0224609375 2501.752197265625 2498.7265625 2493.28125 2485.65576171875 2479.469482421875 2474.437744140625 2469.2646484375 2463.747802734375 2456.709716796875 2450.496826171875 2443.890869140625 2438.42919921875 2433.585693359375 2429.18017578125 2424.103515625 2418.4248046875 2414.486083984375 2411.05517578125 2407.562744140625 2402.20751953125 2396.03759765625 2389.47265625 2382.87890625 2377.771240234375 2372.377197265625 2367.253173828125 2362.25634765625 2354.978759765625 2344.522216796875 2338.94189453125 2333.527099609375 2328.2109375 2321.899658203125 2315.158447265625 2308.044921875 2299.73974609375 2295.864501953125 2290.18798828125 2284.175537109375 2279.219482421875 2273.9501953125 2269.200927734375 2265.64306640625 2262.0810546875 2258.809814453125 2255.1201171875 2252.822265625 2250.931640625 2247.676513671875 2245.897705078125 2242.345458984375 2240.014892578125 2236.334716796875 2234.20263671875 2231.5693359375 2228.9091796875
2686.67919921875 2682.707275390625 2678.95361328125 2675.25341796875 2671.870849609375 2667.923583984375 2664.27783203125 2660.462158203125 2656.688232421875 2653.328125 2650.225830078125 2647.08837890625 2644.7744140625 2642.4189453125 2640.314697265625 2638.834228515625 2638.256591796875 2636.653076171875 2637.103271484375 2633.564697265625 2626.675537109375 2620.74267578125 2614.7373046875 2608.466552734375 2602.569091796875 2596.548583984375 2591.72509765625 2586.271484375 2583.570556640625 2581.451416015625 2579.954833984375 2578.644287109375 2577.03125 2575.442626953125 2572.89990234375 2572.75341796875 2571.405517578125 2569.935546875 2569.47021484375 2569.218994140625 2568.7724609375 2568.917724609375 2567.435546875 2564.747802734375 2563.281982421875 2563.609619140625 2562.87060546875 2560.512451171875 2558.36083984375 2557.564453125 2555.984130859375 2554.993408203125 2552.815185546875 2550.964599609375 2546.731201171875 2543.95947265625 2541.4189453125 2538.87451171875 2540.061767578125 2541.242919921875 2541.572509765625 2541.445556640625 2541.283935546875 2541.27978515625 2541.042236328125 2541.04443359375 2541.85498046875 2542.49169921875 2543.615478515625 2546.17236328125 2549.803955078125 2554.014892578125 2557.642333984375 2562.207275390625 2574.70703125 2586.5556640625 2597.6162109375 2596.5947265625 2609.174072265625 2608.525146484375 2606.686767578125 2605.591796875 2604.490234375 2602.981689453125 2602.81982421875 2601.452392578125 2598.41650390625 2595.43603515625 2593.470703125 2590.7685546875 2588.328369140625 2587.059326171875 2585.56689453125 2581.7919921875 2577.67333984375 2575.12451171875 2571.22900390625 2568.326171875 2565.99658203125 2564.34033203125 2562.8359375 2560.526611328125 2558.96875 2557.367919921875 2557.263671875 2557.396728515625 2558.927978515625 2561.27392578125 2560.48583984375 2560.843994140625 2566.323974609375 2569.394775390625 2563.830810546875 2557.3740234375 2547.390380859375 2539.052490234375 2530.714599609375 2523.684814453125 2515.92236328125 2508.358154296875 2502.411376953125 2498.421630859375 2494.329345703125 2491.297607421875 2483.340576171875 2476.961669921875 2471.483642578125 2465.44482421875 2458.654541015625 2452.25732421875 2446.2060546875 2441.38916015625 2436.584716796875 2431.29296875 2424.94677734375 2418.408447265625 2412.5986328125 2408.830078125 2404.389892578125 2401.466552734375 2395.74072265625 2388.893310546875 2382.87255859375 2377.478515625 2370.72509765625 2365.2060546875 2360.000244140625 2352.831298828125 2345.183349609375 2337.09130859375 2329.748291015625 2324.530029296875 2318.27001953125 2312.499267578125 2306.39892578125 2298.681396484375 2291.12353515625 2285.045654296875 2280.42529296875 2274.519287109375 2270.244873046875 2265.1865234375 2261.68603515625 2258.7421875 2254.85888671875 2252.0849609375 2249.449951171875 2246.9287109375 2243.709716796875 2241.080078125 2239.91943359375 2236.80322265625 2233.58251953125 2230.096923828125 2227.2998046875 2224.073486328125
2689.912109375 2685.97216796875 2682.251708984375 2678.614501953125 2675.08642578125 2671.08251953125 2666.861328125 2663.012451171875 2659.946533203125 2656.314697265625 2652.95263671875 2649.991455078125 2646.87646484375 2644.395751953125 2641.9599609375 2640.549072265625 2639.939208984375 2639.070556640625 2636.578125 2633.83642578125 2629.25146484375 2625.84326171875 2619.156494140625 2612.93359375 2607.3603515625 2600.83935546875 2593.578857421875 2587.77783203125 2582.48046875 2580.337646484375 2579.193115234375 2577.6484375 2576.53271484375 2574.8349609375 2571.065185546875 2571.623779296875 2571.0341796875 2567.952392578125 2568.059326171875 2568.070068359375 2567.701904296875 2570.14599609375 2569.382568359375 2566.40185546875 2562.639404296875 2561.4580078125 2558.825439453125 2557.378173828125 2555.953369140625 2553.654541015625 2551.056884765625 2548.9501953125 2547.687255859375 2544.7763671875 2540.229736328125 2538.266357421875 2534.32568359375 2534.894775390625 2534.66552734375 2536.051513671875 2536.587890625 2536.381103515625 2534.870361328125 2535.30419921875 2535.330810546875 2535.253173828125 2536.548828125 2537.552001953125 2539.21630859375 2541.251220703125 2545.208251953125 2548.23779296875 2552.016845703125 2555.7998046875 2567.6875 2579.499267578125 2582.997802734375 2587.572998046875 2599.939697265625 2603.878173828125 2603.75537109375 2601.835205078125 2600.248779296875 2598.5107421875 2596.930419921875 2596.940673828125 2593.560791015625 2592.03369140625 2590.827880859375 2588.50439453125 2586.911865234375 2584.713134765625 2583.29052734375 2582.254638671875 2579.040771484375 2574.799072265625 2571.10009765625 2565.079345703125 2562.332275390625 2561.173583984375 2559.048583984375 2556.55322265625 2554.676025390625 2552.686279296875 2552.21142578125 2552.198974609375 2552.059814453125 2553.419189453125 2553.599365234375 2553.21240234375 2552.600341796875 2557.46826171875 2559.97802734375 2553.734375 2547.197998046875 2539.105712890625 2531.61328125 2524.77197265625 2518.055419921875 2511.32861328125 2504.4033203125 2498.90478515625 2494.966064453125 2491.580078125 2487.7275390625 2481.23193359375 2474.130615234375 2468.601318359375 2461.54296875 2453.32373046875 2447.61865234375 2442.69921875 2438.40234375 2432.545654296875 2426.142333984375 2418.703125 2412.803466796875 2407.401123046875 2402.84228515625 2398.799072265625 2392.917724609375 2387.077392578125 2381.290283203125 2375.155029296875 2368.749755859375 2362.98095703125 2357.1220703125 2350.47119140625 2343.148681640625 2335.568115234375 2327.899658203125 2320.86376953125 2315.219970703125 2309.246337890625 2302.820556640625 2296.474609375 2289.420166015625 2282.9267578125 2277.782470703125 2272.08935546875 2266.98193359375 2262.66259765625 2258.6748046875 2255.659423828125 2251.548828125 2248.837158203125 2247.00244140625 2243.500732421875 2240.6494140625 2235.819091796875 2233.96630859375 2232.791259765625 2229.601318359375 2226.27783203125 2222.83544921875 2219.61279296875
2693.583251953125 2689.74609375 2686.031005859375 2681.7958984375 2678.24658203125 2673.78369140625 2670.16796875 2666.208740234375 2662.54931640625 2658.762451171875 2655.450439453125 2652.16845703125 2649.23095703125 2646.295654296875 2643.212646484375 2641.6455078125 2640.58740234375 2639.0224609375 2637.08837890625 2635.4130859375 2631.20263671875 2627.1591796875 2624.38623046875 2618.917724609375 2612.79150390625 2606.79345703125 2600.138671875 2591.88134765625 2584.182373046875 2581.059814453125 2578.985595703125 2576.87939453125 2575.364501953125 2573.384521484375 2570.817138671875 2568.771728515625 2567.4677734375 2566.472900390625 2566.95654296875 2566.729736328125 2567.21044921875 2569.20849609375 2569.4765625 2567.638427734375 2564.299560546875 2559.42529296875 2558.195068359375 2555.98828125 2554.293212890625 2550.6904296875 2547.615478515625 2545.3125 2542.669677734375 2539.02587890625 2536.4423828125 2532.958251953125 2530.923583984375 2530.593994140625 2529.721923828125 2531.406494140625 2531.840576171875 2531.64599609375 2530.098388671875 2529.842529296875 2529.596923828125 2529.68701171875 2530.679931640625 2532.1435546875 2533.8427734375 2536.931640625 2539.72607421875 2542.32373046875 2545.668701171875 2549.251220703125 2554.195068359375 2569.638427734375 2575.67724609375 2580.713134765625 2590.318115234375 2597.71435546875 2600.0234375 2598.79931640625 2597.8515625 2595 2593.210693359375 2591.845458984375 2589.253662109375 2587.724609375 2586.8134765625 2584.572021484375 2585.020263671875 2583.701904296875 2580.67431640625 2579.468505859375 2577.278076171875 2574.416259765625 2570.981201171875 2565.802001953125 2561.39453125 2557.6484375 2556.2890625 2555.42724609375 2552.409912109375 2549.593017578125 2548.07421875 2546.942138671875 2546.89501953125 2547.443603515625 2546.452880859375 2546.497802734375 2546.921630859375 2545.114013671875 2544.176513671875 2544.17236328125 2542.62890625 2538.884765625 2533.98193359375 2527.637939453125 2520.3359375 2513.441162109375 2507.645751953125 2502.07373046875 2496.243408203125 2492.1103515625 2488.23095703125 2484.1328125 2477.534912109375 2470.138671875 2462.197998046875 2454.496826171875 2448.189697265625 2442.658447265625 2438.893798828125 2432.62548828125 2425.84765625 2418.643798828125 2411.867919921875 2406.18310546875 2400.997802734375 2396.647705078125 2391.52783203125 2384.872802734375 2378.983154296875 2372.761962890625 2366.21533203125 2359.423095703125 2352.70654296875 2346.2705078125 2339.674560546875 2331.232421875 2324.3828125 2318.071533203125 2312.259765625 2305.46337890625 2301.18505859375 2294.14501953125 2287.536865234375 2280.728271484375 2275.409912109375 2269.9931640625 2265.33203125 2260.275634765625 2256.214111328125 2253.223388671875 2249.1064453125 2245.33544921875 2243.10595703125 2241.1142578125 2236.648193359375 2233.505126953125 2227.658447265625 2225.93701171875 2224.621337890625 2222.056640625 2218.450439453125 2214.84765625
2697.38525390625 2693.632568359375 2689.26171875 2685.039306640625 2681.384033203125 2677.213134765625 2673.187744140625 2669.45654296875 2665.5390625 2661.443115234375 2657.8359375 2654.66943359375 2651.447509765625 2647.888427734375 2644.524169921875 2642.5439453125 2640.9833984375 2639.49951171875 2637.76025390625 2635.86572265625 2633.217041015625 2630.2890625 2626.932373046875 2621.62646484375 2616.068115234375 2608.405517578125 2602.738037109375 2598.76171875 2589.548095703125 2585.263916015625 2581.509033203125 2577.20556640625 2573.514892578125 2571.057861328125 2567.308349609375 2566.771240234375 2565.6396484375 2565.7294921875 2565.72412109375 2565.766845703125 2565.31689453125 2566.84814453125 2568.3486328125 2567.319091796875 2563.74462890625 2559.640380859375 2556.549072265625 2554.792724609375 2552.039306640625 2549.621826171875 2546.442626953125 2542.85205078125 2539.945068359375 2535.924560546875 2533.072998046875 2529.3369140625 2526.34619140625 2526.1640625 2525.92041015625 2526.92138671875 2527.553955078125 2527.584716796875 2526.5283203125 2524.829345703125 2523.36962890625 2523.244873046875 2523.525146484375 2526.000244140625 2529.32470703125 2532.405517578125 2534.2294921875 2536.862060546875 2539.011474609375 2541.8671875 2547.505126953125 2562.301513671875 2567.01806640625 2576.666015625 2583.245361328125 2590.37353515625 2594.15234375 2594.199462890625 2592.8974609375 2590.8544921875 2588.88330078125 2586.551513671875 2584.711181640625 2583.4296875 2581.3046875 2580.69482421875 2579.091796875 2578.109375 2576.919921875 2576.2197265625 2574.23828125 2571.10009765625 2568.46533203125 2564.418212890625 2560.845947265625 2557.971923828125 2554.4365234375 2552.997314453125 2552.1396484375 2549.36376953125 2546.254150390625 2544.373046875 2543.396484375 2542.248046875 2540.96875 2539.3740234375 2538.647216796875 2538.350341796875 2537.296142578125 2535.519287109375 2535.68505859375 2532.935791015625 2530.6123046875 2526.2109375 2520.71875 2516.131103515625 2508.94580078125 2503.36328125 2498.329345703125 2494.751220703125 2491.009033203125 2486.177734375 2480.69580078125 2472.3271484375 2462.181640625 2454.912353515625 2448.2900390625 2442.060546875 2437.202880859375 2431.724853515625 2426.140380859375 2418.993896484375 2411.665283203125 2405.468505859375 2399.78369140625 2394.80126953125 2389.93505859375 2383.052734375 2376.250244140625 2369.18359375 2363.57861328125 2356.340087890625 2349.38818359375 2342.151611328125 2334.864013671875 2328.51171875 2321.633544921875 2315.109375 2309.01708984375 2302.8984375 2297.641357421875 2292.292236328125 2286.0546875 2278.78955078125 2271.0986328125 2266.574462890625 2262.07080078125 2258.552001953125 2254.92041015625 2251.83935546875 2248.03173828125 2243.56201171875 2238.65771484375 2237.547607421875 2233.31396484375 2230.684326171875 2226.232666015625 2219.583984375 2218.228759765625 2216.78857421875 2214.54296875 2209.993896484375
2701.145263671875 2696.789306640625 2692.546875 2688.71923828125 2684.623291015625 2680.465087890625 2676.524169921875 2672.06884765625 2668.12890625 2664.34521484375 2661.01953125 2657.618896484375 2653.471435546875 2649.662109375 2645.853759765625 2643.415771484375 2641.390869140625 2639.282470703125 2636.62744140625 2634.282470703125 2632.18994140625 2630.908447265625 2628.38720703125 2623.648193359375 2617.78173828125 2610.906494140625 2604.244140625 2600.317138671875 2594.23046875 2589.0517578125 2586.259765625 2582.322021484375 2578.5126953125 2572.879638671875 2567.8486328125 2565.326171875 2564.65966796875 2564.8330078125 2564.887451171875 2564.43603515625 2564.534912109375 2564.3505859375 2567.8388671875 2566.238037109375 2562.027099609375 2558.154052734375 2554.633056640625 2552.14794921875 2548.78857421875 2545.859130859375 2544.084228515625 2541.099609375 2537.14453125 2533.447509765625 2530.28076171875 2527.47216796875 2523.396240234375 2522.949951171875 2522.591796875 2522.47705078125 2523.2080078125 2523.025634765625 2522.09423828125 2520.43408203125 2520.057373046875 2518.64501953125 2517.17724609375 2519.918212890625 2523.523193359375 2527.171142578125 2528.958251953125 2530.319580078125 2532.2294921875 2534.83349609375 2538.93798828125 2546.40576171875 2557.65869140625 2568.406005859375 2576.84619140625 2583.58740234375 2588.123779296875 2588.371337890625 2586.62109375 2586.41650390625 2583.540283203125 2582.068359375 2579.722412109375 2577.8759765625 2576.20947265625 2575.29248046875 2574.7724609375 2574.29345703125 2573.298583984375 2570.850341796875 2569.646484375 2568.534912109375 2565.9208984375 2562.9873046875 2559.6259765625 2556.74365234375 2553.570556640625 2550.61669921875 2548.624755859375 2548.336181640625 2546.100830078125 2543.103759765625 2541.19384765625 2539.693359375 2538.157958984375 2536.4833984375 2534.83349609375 2533.402587890625 2531.02783203125 2530.02880859375 2528.3974609375 2526.68994140625 2524.417724609375 2522.034912109375 2518.088134765625 2514.08203125 2509.748291015625 2504.16162109375 2499.54736328125 2495.795166015625 2491.6005859375 2487.117431640625 2480.701904296875 2472.42333984375 2462.5439453125 2455.549072265625 2447.77001953125 2441.297119140625 2435.7822265625 2431.884521484375 2427.08203125 2420.985595703125 2412.86474609375 2405.603759765625 2399.1962890625 2393.9638671875 2386.4775390625 2378.24609375 2371.93896484375 2366.039306640625 2359.658447265625 2353.015625 2346.28271484375 2339.543701171875 2331.738037109375 2323.825927734375 2318.58740234375 2312.008056640625 2306.509521484375 2300.169677734375 2294.46826171875 2288.478515625 2283.197021484375 2276.5009765625 2270.605224609375 2264.68505859375 2259.712646484375 2255.5078125 2251.874267578125 2248.8935546875 2245.429931640625 2240.582763671875 2236.95654296875 2232.010986328125 2229.74169921875 2227.30517578125 2224.28076171875 2218.84326171875 2211.749267578125 2210.18505859375 2209.467529296875 2205.720703125
2704.623046875 2700.7099609375 2696.664306640625 2692.21826171875 2688.0732421875 2683.900146484375 2679.509765625 2675.326171875 2671.177734375 2667.49365234375 2663.26904296875 2659.145263671875 2654.855712890625 2650.75439453125 2647.76123046875 2645.50390625 2642.618896484375 2639.86767578125 2636.979248046875 2634.3017578125 2632.114013671875 2629.926513671875 2629.460205078125 2625.7685546875 2621.30322265625 2615.7578125 2609.912841796875 2605.114013671875 2599.24755859375 2594.23046875 2588.684814453125 2584.68505859375 2580.828857421875 2576.50390625 2571.422607421875 2567.09326171875 2564.33447265625 2563.87353515625 2564.264892578125 2563.2978515625 2563.226806640625 2563.21240234375 2563.306640625 2562.10498046875 2559.36181640625 2555.55419921875 2552.93408203125 2551.007568359375 2548.366943359375 2543.924560546875 2540.315673828125 2537.625732421875 2534.3544921875 2531.353271484375 2527.828369140625 2524.58154296875 2521.680908203125 2520.204833984375 2519.279541015625 2517.091064453125 2517.416748046875 2518.0205078125 2517.869140625 2517.185302734375 2516.8720703125 2514.765625 2513.140380859375 2514.335693359375 2517.725830078125 2521.216064453125 2521.947021484375 2522.802490234375 2525.28173828125 2528.24169921875 2532.08203125 2539.2060546875 2553.505126953125 2562.16845703125 2571.3681640625 2577.68359375 2583.667236328125 2583.86572265625 2582.234130859375 2579.968017578125 2578.809326171875 2577.1142578125 2574.4716796875 2572.12548828125 2571.59130859375 2570.162353515625 2568.567626953125 2567.646484375 2567.8369140625 2567.89013671875 2565.939208984375 2563.82861328125 2561.820556640625 2559.27392578125 2556.6083984375 2554.65966796875 2551.33935546875 2548.057861328125 2545.367919921875 2544.008544921875 2543.3759765625 2542.665771484375 2540.125244140625 2537.70556640625 2535.605224609375 2533.6767578125 2532.40966796875 2530.278564453125 2527.904052734375 2525.5048828125 2523.77099609375 2519.92236328125 2518.714599609375 2515.5517578125 2513.87109375 2511.537353515625 2507.8916015625 2503.134033203125 2499.576171875 2495.346923828125 2491.2607421875 2487.275146484375 2480.84521484375 2470.34765625 2462.6259765625 2455.403564453125 2448.560302734375 2442.25927734375 2435.98291015625 2431.479248046875 2427.739013671875 2421.630615234375 2414.2587890625 2407.466552734375 2401.093994140625 2393.55859375 2387.9208984375 2377.069091796875 2368.753662109375 2361.691162109375 2356.086181640625 2349.26123046875 2342.628662109375 2335.62548828125 2329.078857421875 2322.978515625 2316.50341796875 2309.745849609375 2303.447021484375 2297.352783203125 2291.661865234375 2286.505126953125 2280.19189453125 2273.6943359375 2268.5888671875 2262.70947265625 2257.32763671875 2252.75439453125 2248.779052734375 2245.8271484375 2241.896728515625 2236.554443359375 2232.8544921875 2229.716552734375 2226.3046875 2224.2412109375 2220.83837890625 2216.417236328125 2210.33447265625 2203.174072265625 2201.852783203125 2200.994873046875
2708.6044921875 2704.705322265625 2700.1494140625 2696.0234375 2691.328369140625 2686.919921875 2682.60791015625 2678.77490234375 2674.1142578125 2670.0126953125 2665.287841796875 2660.978759765625 2657.020751953125 2653.319580078125 2650.510498046875 2647.642333984375 2644.411865234375 2640.5126953125 2637.858642578125 2636.43359375 2634.114501953125 2632.22119140625 2630.76416015625 2627.677978515625 2623.896484375 2619.9619140625 2614.6357421875 2609.39599609375 2604.927734375 2600.05419921875 2593.92236328125 2589.714111328125 2585.830810546875 2581.72314453125 2576.529541015625 2571.406494140625 2567.505126953125 2565.88671875 2562.9609375 2562.796142578125 2561.29638671875 2562.121337890625 2560.626953125 2558.708740234375 2555.971923828125 2553.2880859375 2551.814208984375 2550.059814453125 2546.241943359375 2542.04541015625 2538.08837890625 2535.797607421875 2531.52734375 2529.031982421875 2525.60302734375 2522.075927734375 2519.572265625 2517.23046875 2516.143310546875 2514.462646484375 2512.931396484375 2511.803466796875 2512.151611328125 2511.385986328125 2510.42578125 2510.644775390625 2510.71240234375 2510.0859375 2511.96533203125 2514.7841796875 2516.01025390625 2517.064453125 2519.641845703125 2522.511962890625 2526.888671875 2531.384033203125 2543.142578125 2556.821533203125 2564.42236328125 2571.44384765625 2576.96484375 2577.5771484375 2577.433837890625 2576.10302734375 2573.566650390625 2572.69873046875 2570.256591796875 2566.334228515625 2564.1171875 2563.406982421875 2561.82666015625 2560.927978515625 2560.78662109375 2560.7109375 2559.86962890625 2558.458984375 2556.768310546875 2555.558349609375 2553.10791015625 2551.1591796875 2549.63818359375 2546.458984375 2543.89599609375 2541.0791015625 2540.338134765625 2539.93896484375 2538.544921875 2535.6953125 2533.2490234375 2531.445556640625 2529.30224609375 2527.351318359375 2525.216064453125 2522.906982421875 2520.620361328125 2517.2958984375 2513.410400390625 2511.144287109375 2509.71337890625 2508.20263671875 2505.18115234375 2501.657958984375 2498.292724609375 2494.910888671875 2491.232177734375 2486.447998046875 2479.59423828125 2472.55224609375 2463.516357421875 2458.396484375 2451.379150390625 2443.548828125 2437.5283203125 2431.5712890625 2426.4453125 2420.559814453125 2414.367431640625 2408.01318359375 2399.509521484375 2392.455078125 2386.025146484375 2377.61767578125 2369.007568359375 2360.87451171875 2352.6982421875 2345.703369140625 2339.394287109375 2332.864013671875 2326.272216796875 2320.45849609375 2314.051025390625 2307.414306640625 2300.769287109375 2294.5380859375 2289.055908203125 2282.4169921875 2277.540771484375 2271.9052734375 2266.805908203125 2260.509033203125 2254.56005859375 2249.806640625 2246.017578125 2242.66845703125 2238.664306640625 2234.152099609375 2228.99560546875 2225.747802734375 2223.80859375 2220.353515625 2217.644775390625 2213.22900390625 2208.184326171875 2201.44921875 2194.7607421875 2193.947998046875
2713.099609375 2708.62060546875 2703.92236328125 2699.41455078125 2694.61767578125 2690.481201171875 2685.880126953125 2681.003173828125 2676.657958984375 2672.0986328125 2667.7138671875 2663.44873046875 2659.70703125 2656.67529296875 2653.242431640625 2649.78515625 2646.268798828125 2643.505859375 2641.418701171875 2639.540283203125 2637.14306640625 2634.860107421875 2632.53662109375 2628.967041015625 2625.37158203125 2622.223388671875 2617.810546875 2612.968994140625 2607.0126953125 2603.470703125 2599.256103515625 2594.946044921875 2590.84912109375 2587.393798828125 2581.9306640625 2576.73583984375 2571.450439453125 2566.49951171875 2564.073486328125 2562.622802734375 2560.717041015625 2559.791748046875 2558.51220703125 2556.123291015625 2552.749755859375 2550.033203125 2547.87158203125 2548.157958984375 2545.4599609375 2539.3779296875 2535.404541015625 2531.635986328125 2530.704345703125 2527.500732421875 2524.937744140625 2519.98779296875 2516.354248046875 2514.896728515625 2513.58642578125 2512.18017578125 2509.866943359375 2508.298828125 2506.335693359375 2505.1689453125 2504.47900390625 2504.210693359375 2505.09521484375 2505.873046875 2506.388916015625 2508.59375 2510.028564453125 2511.01953125 2514.2744140625 2517.47802734375 2521.162841796875 2524.24365234375 2537.77099609375 2551.89208984375 2561.431396484375 2567.64453125 2571.16552734375 2571.95361328125 2571.18603515625 2570.160400390625 2568.5595703125 2566.08056640625 2563.57275390625 2561.513427734375 2559.55224609375 2557.224609375 2555.8837890625 2554.557373046875 2554.080322265625 2553.5419921875 2554.772216796875 2553.005615234375 2551.65869140625 2551.01171875 2550.02490234375 2548.561279296875 2547.072998046875 2545.35546875 2542.61865234375 2539.525390625 2537.562255859375 2536.6513671875 2535.17529296875 2532.9951171875 2530.544677734375 2528.970458984375 2527.17724609375 2524.720703125 2522.919189453125 2520.71875 2517.8466796875 2513.8505859375 2509.75634765625 2507.28759765625 2504.43798828125 2502.816650390625 2501.604736328125 2498.859619140625 2495.657958984375 2493.170654296875 2490.157470703125 2486.128662109375 2480.40283203125 2472.437744140625 2463.663818359375 2458.59716796875 2454.156982421875 2447.000244140625 2437.204833984375 2431.30712890625 2425.8271484375 2419.8271484375 2412.795166015625 2404.90576171875 2398.12353515625 2390.661865234375 2382.99951171875 2375.06298828125 2366.96875 2358.817138671875 2350.735107421875 2342.917236328125 2336.86181640625 2329.14013671875 2322.8740234375 2317.69482421875 2311.42041015625 2305.498291015625 2298.31494140625 2292.18994140625 2286.280029296875 2280.06689453125 2275.391357421875 2270.60107421875 2264.658447265625 2258.05859375 2251.62646484375 2246.672607421875 2242.56201171875 2238.40625 2234.656005859375 2231.106201171875 2226.657958984375 2223.45703125 2220.5283203125 2218.021484375 2213.81298828125 2208.995361328125 2204.57080078125 2199.181884765625 2194.02001953125 2188.708740234375
2717.103759765625 2712.224609375 2707.55615234375 2702.7177734375 2697.887939453125 2693.28173828125 2688.587646484375 2684.052001953125 2679.45849609375 2674.982666015625 2670.98193359375 2666.74365234375 2663.096923828125 2659.37744140625 2656.139404296875 2652.771728515625 2649.82568359375 2646.837890625 2645.14453125 2642.45849609375 2640.095458984375 2637.164306640625 2634.119873046875 2630.78662109375 2627.697265625 2624.4921875 2620.935302734375 2616.99560546875 2611.89501953125 2605.596435546875 2601.068115234375 2596.481201171875 2593.90087890625 2589.1416015625 2586.032958984375 2581.624755859375 2575.447021484375 2569.982666015625 2563.9365234375 2562.694580078125 2560.87255859375 2557.793701171875 2555.855224609375 2553.06494140625 2549.167236328125 2546.24609375 2543.61767578125 2543.49267578125 2542.657470703125 2539.6298828125 2531.341064453125 2527.906005859375 2526.73095703125 2525.65625 2522.417724609375 2518.9970703125 2513.580322265625 2510.900634765625 2509.952880859375 2507.81982421875 2506.60791015625 2505.539306640625 2503.97119140625 2502.452392578125 2502.454345703125 2501.873046875 2502.18408203125 2500.4501953125 2500.073486328125 2502.612060546875 2504.7265625 2506.699951171875 2509.302001953125 2512.30908203125 2514.93359375 2519.183349609375 2526.894775390625 2542.528564453125 2551.515380859375 2558.6884765625 2562.82763671875 2568.21142578125 2566.71923828125 2566.15625 2564.154052734375 2561.861328125 2559.39453125 2556.006591796875 2554.31787109375 2552.135498046875 2551.138671875 2549.59912109375 2548.111083984375 2547.752685546875 2546.710693359375 2546.927734375 2545.89794921875 2544.835693359375 2544.667724609375 2544.604248046875 2543.930908203125 2542.6328125 2541.32275390625 2538.702392578125 2535.486572265625 2533.34326171875 2531.881591796875 2530.915283203125 2528.8271484375 2526.735107421875 2524.94189453125 2523.023681640625 2520.2744140625 2517.95703125 2515.7236328125 2511.73388671875 2506.536376953125 2504.255859375 2500.569091796875 2498.442138671875 2496.984619140625 2495.293701171875 2492.859619140625 2490.1123046875 2484.8779296875 2480.4521484375 2475.3056640625 2469.76416015625 2463.454833984375 2458.36376953125 2453.77001953125 2449.102783203125 2438.115966796875 2430.9140625 2424.516845703125 2418.45751953125 2411.634521484375 2404.90576171875 2398.299560546875 2391.286376953125 2382.880859375 2373.09375 2364.497802734375 2355.615478515625 2347.948974609375 2340.11474609375 2333.84033203125 2328.186279296875 2322.16357421875 2315.1298828125 2307.9609375 2302.245361328125 2295.831787109375 2289.491943359375 2283.804931640625 2278.271728515625 2272.711669921875 2267.200927734375 2261.4609375 2255.258056640625 2249.15966796875 2244.60302734375 2241.206787109375 2237.081787109375 2233.6591796875 2229.10546875 2225.001708984375 2221.5341796875 2219.74267578125 2216.013671875 2211.0517578125 2205.70068359375 2199.4521484375 2195.66015625 2190.505615234375 2186.38720703125
2720.94189453125 2716.101318359375 2711.2392578125 2706.24267578125 2701.200927734375 2696.51123046875 2691.84716796875 2687.0087890625 2682.836669921875 2678.544921875 2673.96435546875 2669.779541015625 2665.94775390625 2662.947265625 2659.4833984375 2656.785400390625 2654.115478515625 2651.7138671875 2649.120849609375 2645.998291015625 2643.0244140625 2639.825927734375 2636.445556640625 2632.712158203125 2629.292236328125 2625.217529296875 2622.673583984375 2618.771240234375 2614.584228515625 2610.720458984375 2604.818603515625 2600.76220703125 2594.933349609375 2590.859619140625 2587.47607421875 2584.869140625 2580.011474609375 2573.094482421875 2566.59375 2561.59375 2558.92578125 2555.61767578125 2552.00048828125 2548.10693359375 2544.88671875 2543.7568359375 2541.337158203125 2539.57666015625 2538.89697265625 2536.593994140625 2530.4833984375 2523.457763671875 2523.185302734375 2521.5478515625 2519.19140625 2516.96435546875 2512.62451171875 2507.9345703125 2506.653076171875 2505.178955078125 2503.9814453125 2503.207763671875 2502.505615234375 2500.528076171875 2500.0859375 2501.531005859375 2499.177001953125 2500.069580078125 2497.3017578125 2498.14111328125 2500 2502.24755859375 2505.078857421875 2506.67138671875 2510.151611328125 2515.94287109375 2520.0185546875 2533.98193359375 2540.89501953125 2547.464111328125 2552.244140625 2558.52880859375 2566.6044921875 2563.63427734375 2561.110107421875 2558.4794921875 2555.877685546875 2553.1591796875 2549.826416015625 2547.975830078125 2546.221435546875 2544.06787109375 2542.8212890625 2541.568359375 2540.295166015625 2539.72607421875 2540.81298828125 2539.3310546875 2539.423095703125 2539.138427734375 2538.3955078125 2538.325927734375 2537.797607421875 2536.501953125 2533.691162109375 2531.468017578125 2528.87841796875 2527.0380859375 2526.041015625 2523.938720703125 2522.491455078125 2520.423828125 2518.012451171875 2515.404296875 2512.96630859375 2508.0205078125 2503.506591796875 2500.30908203125 2497.825927734375 2496.5341796875 2494.171875 2492.05908203125 2489.1337890625 2484.6015625 2479.455078125 2474.961669921875 2471.15625 2467.68212890625 2463.070068359375 2458.140625 2452.49462890625 2449.084228515625 2439.073974609375 2430.2734375 2423.155517578125 2416.580322265625 2410.570068359375 2404.01513671875 2397.1982421875 2390.67626953125 2383.31884765625 2372.59814453125 2362.350341796875 2353.955322265625 2347.11181640625 2339.32666015625 2332.343994140625 2326.067626953125 2318.97021484375 2312.50537109375 2305.8974609375 2299.418212890625 2292.2861328125 2287.279052734375 2281.75390625 2275.794677734375 2269.25 2263.065673828125 2258.1875 2252.6787109375 2247.49560546875 2242.81982421875 2240.37353515625 2236.613037109375 2232.67236328125 2227.6005859375 2225.47216796875 2223.496826171875 2219.457763671875 2214.8349609375 2210.898681640625 2203.932861328125 2198.06982421875 2192.423095703125 2187.483154296875 2183.712646484375
