nCols  314
nRows  32
xllcenter  1505
yllcenter 890
cellsize  5.00
nodata_value -9999.00
1.720599 1.627356 1.538588 1.454118 1.373770 1.297375 1.224769 1.155794 1.090294 1.028121 0.969131 0.913183 0.860143 0.809881 0.762270 0.717189 0.674522 0.634156 0.595982 0.559897 0.525799 0.493593 0.463186 0.434490 0.407418 0.381891 0.357828 0.335156 0.313803 0.293700 0.274782 0.256986 0.240253 0.224524 0.209747 0.195868 0.182839 0.170613 0.159144 0.148391 0.138312 0.128869 0.120026 0.111747 0.104000 0.096754 0.089979 0.083646 0.077730 0.072205 0.067048 0.062235 0.057746 0.053561 0.049660 0.046026 0.042641 0.039491 0.036559 0.033832 0.031297 0.028941 0.026752 0.024719 0.022832 0.021081 0.019457 0.017951 0.016556 0.015263 0.014066 0.012958 0.011932 0.010984 0.010107 0.009296 0.008547 0.007856 0.007218 0.006629 0.006085 0.005585 0.005123 0.004698 0.004306 0.003946 0.003614 0.003309 0.003029 0.002771 0.002534 0.002317 0.002117 0.001934 0.001766 0.001612 0.001471 0.001342 0.001223 0.001115 0.001016 0.000925 0.000842 0.000766 0.000697 0.000634 0.000576 0.000523 0.000475 0.000432 0.000392 0.000355 0.000322 0.000292 0.000265 0.000240 0.000217 0.000197 0.000178 0.000161 0.000145 0.000131 0.000119 0.000107 0.000097 0.000087 0.000079 0.000071 0.000064 0.000058 0.000052 0.000047 0.000042 0.000038 0.000034 0.000031 0.000027 0.000025 0.000022 0.000020 0.000018 0.000016 0.000014 0.000013 0.000012 0.000010 0.000009 0.000008 0.000007 0.000007 0.000006 0.000005 0.000005 0.000004 0.000004 0.000003 0.000003 0.000003 0.000002 0.000002 0.000002 0.000002 0.000001 0.000001 0.000001 0.000001 0.000001 0.000001 0.000001 0.000001 0.000001 0.000001 0.000000 0.000000 0.000000 0.000000 0.000000 0.000000 0.000000 0.000000 0.000000 0.000000 0.000000 0.000000 0.000000 0.000000 0.000000 0.000000 0.000000 0.000000 0.000000 0.000000 0.000000 0.000000 0.000000 0.000000 0.000000 0.000000 0.000000 0.000000 0.000000 0.000000 0.000000 0.000000 0.000000 0.000000 0.000000 0.000000 0.000000 0.000000 0.000000 0.000000 0.000000 0.000000 0.000000 0.000000 0.000000 0.000000 0.000000 0.000000 0.000000 0.000000 0.000000 0.000000 0.000000 0.000000 0.000000 0.000000 0.000000 0.000000 0.000000 0.000000 0.000000 0.000000 0.000000 0.000000 0.000000 0.000000 0.000000 0.000000 0.000000 0.000000 0.000000 0.000000 0.000000 0.000000 0.000000 0.000000 0.000000 0.000000 0.000000 0.000000 0.000000 0.000000 0.000000 0.000000 0.000000 0.000000 0.000000 0.000000 0.000000 0.000000 0.000000 0.000000 0.000000 0.000000 0.000000 0.000000 0.000000 0.000000 0.000000 0.000000 0.000000 0.000000 0.000000 0.000000 0.000000 0.000000 0.000000 0.000000 0.000000 0.000000 0.000000 0.000000 0.000000 0.000000 0.000000 0.000000 0.000000 0.000000 0.000000 0.000000 0.000000 0.000000 0.000000 0.000000 0.000000 0.000000 0.000000 0.000000 0.000000 0.000000 0.000000 0.000000 0.000000 0.000000 0.000000 0.000000 0.000000 0.000000 0.000000 0.000000 0.000000 0.000000
1.720599 1.627356 1.538588 1.454118 1.373770 1.297375 1.224769 1.155794 1.090294 1.028121 0.969131 0.913183 0.860143 0.809881 0.762270 0.717189 0.674522 0.634156 0.595982 0.559897 0.525799 0.493593 0.463186 0.434490 0.407418 0.381891 0.357828 0.335156 0.313803 0.293700 0.274782 0.256986 0.240253 0.224524 0.209747 0.195868 0.182839 0.170613 0.159144 0.148391 0.138312 0.128869 0.120026 0.111747 0.104000 0.096754 0.089979 0.083646 0.077730 0.072205 0.067048 0.062235 0.057746 0.053561 0.049660 0.046026 0.042641 0.039491 0.036559 0.033832 0.031297 0.028941 0.026752 0.024719 0.022832 0.021081 0.019457 0.017951 0.016556 0.015263 0.014066 0.012958 0.011932 0.010984 0.010107 0.009296 0.008547 0.007856 0.007218 0.006629 0.006085 0.005585 0.005123 0.004698 0.004306 0.003946 0.003614 0.003309 0.003029 0.002771 0.002534 0.002317 0.002117 0.001934 0.001766 0.001612 0.001471 0.001342 0.001223 0.001115 0.001016 0.000925 0.000842 0.000766 0.000697 0.000634 0.000576 0.000523 0.000475 0.000432 0.000392 0.000355 0.000322 0.000292 0.000265 0.000240 0.000217 0.000197 0.000178 0.000161 0.000145 0.000131 0.000119 0.000107 0.000097 0.000087 0.000079 0.000071 0.000064 0.000058 0.000052 0.000047 0.000042 0.000038 0.000034 0.000031 0.000027 0.000025 0.000022 0.000020 0.000018 0.000016 0.000014 0.000013 0.000012 0.000010 0.000009 0.000008 0.000007 0.000007 0.000006 0.000005 0.000005 0.000004 0.000004 0.000003 0.000003 0.000003 0.000002 0.000002 0.000002 0.000002 0.000001 0.000001 0.000001 0.000001 0.000001 0.000001 0.000001 0.000001 0.000001 0.000001 0.000000 0.000000 0.000000 0.000000 0.000000 0.000000 0.000000 0.000000 0.000000 0.000000 0.000000 0.000000 0.000000 0.000000 0.000000 0.000000 0.000000 0.000000 0.000000 0.000000 0.000000 0.000000 0.000000 0.000000 0.000000 0.000000 0.000000 0.000000 0.000000 0.000000 0.000000 0.000000 0.000000 0.000000 0.000000 0.000000 0.000000 0.000000 0.000000 0.000000 0.000000 0.000000 0.000000 0.000000 0.000000 0.000000 0.000000 0.000000 0.000000 0.000000 0.000000 0.000000 0.000000 0.000000 0.000000 0.000000 0.000000 0.000000 0.000000 0.000000 0.000000 0.000000 0.000000 0.000000 0.000000 0.000000 0.000000 0.000000 0.000000 0.000000 0.000000 0.000000 0.000000 0.000000 0.000000 0.000000 0.000000 0.000000 0.000000 0.000000 0.000000 0.000000 0.000000 0.000000 0.000000 0.000000 0.000000 0.000000 0.000000 0.000000 0.000000 0.000000 0.000000 0.000000 0.000000 0.000000 0.000000 0.000000 0.000000 0.000000 0.000000 0.000000 0.000000 0.000000 0.000000 0.000000 0.000000 0.000000 0.000000 0.000000 0.000000 0.000000 0.000000 0.000000 0.000000 0.000000 0.000000 0.000000 0.000000 0.000000 0.000000 0.000000 0.000000 0.000000 0.000000 0.000000 0.000000 0.000000 0.000000 0.000000 0.000000 0.000000 0.000000 0.000000 0.000000 0.000000 0.000000 0.000000 0.000000 0.000000 0.000000 0.000000
1.720599 1.627356 1.538588 1.454118 1.373770 1.297375 1.224769 1.155794 1.090294 1.028121 0.969131 0.913183 0.860143 0.809881 0.762270 0.717189 0.674522 0.634156 0.595982 0.559897 0.525799 0.493593 0.463186 0.434490 0.407418 0.381891 0.357828 0.335156 0.313803 0.293700 0.274782 0.256986 0.240253 0.224524 0.209747 0.195868 0.182839 0.170613 0.159144 0.148391 0.138312 0.128869 0.120026 0.111747 0.104000 0.096754 0.089979 0.083646 0.077730 0.072205 0.067048 0.062235 0.057746 0.053561 0.049660 0.046026 0.042641 0.039491 0.036559 0.033832 0.031297 0.028941 0.026752 0.024719 0.022832 0.021081 0.019457 0.017951 0.016556 0.015263 0.014066 0.012958 0.011932 0.010984 0.010107 0.009296 0.008547 0.007856 0.007218 0.006629 0.006085 0.005585 0.005123 0.004698 0.004306 0.003946 0.003614 0.003309 0.003029 0.002771 0.002534 0.002317 0.002117 0.001934 0.001766 0.001612 0.001471 0.001342 0.001223 0.001115 0.001016 0.000925 0.000842 0.000766 0.000697 0.000634 0.000576 0.000523 0.000475 0.000432 0.000392 0.000355 0.000322 0.000292 0.000265 0.000240 0.000217 0.000197 0.000178 0.000161 0.000145 0.000131 0.000119 0.000107 0.000097 0.000087 0.000079 0.000071 0.000064 0.000058 0.000052 0.000047 0.000042 0.000038 0.000034 0.000031 0.000027 0.000025 0.000022 0.000020 0.000018 0.000016 0.000014 0.000013 0.000012 0.000010 0.000009 0.000008 0.000007 0.000007 0.000006 0.000005 0.000005 0.000004 0.000004 0.000003 0.000003 0.000003 0.000002 0.000002 0.000002 0.000002 0.000001 0.000001 0.000001 0.000001 0.000001 0.000001 0.000001 0.000001 0.000001 0.000001 0.000000 0.000000 0.000000 0.000000 0.000000 0.000000 0.000000 0.000000 0.000000 0.000000 0.000000 0.000000 0.000000 0.000000 0.000000 0.000000 0.000000 0.000000 0.000000 0.000000 0.000000 0.000000 0.000000 0.000000 0.000000 0.000000 0.000000 0.000000 0.000000 0.000000 0.000000 0.000000 0.000000 0.000000 0.000000 0.000000 0.000000 0.000000 0.000000 0.000000 0.000000 0.000000 0.000000 0.000000 0.000000 0.000000 0.000000 0.000000 0.000000 0.000000 0.000000 0.000000 0.000000 0.000000 0.000000 0.000000 0.000000 0.000000 0.000000 0.000000 0.000000 0.000000 0.000000 0.000000 0.000000 0.000000 0.000000 0.000000 0.000000 0.000000 0.000000 0.000000 0.000000 0.000000 0.000000 0.000000 0.000000 0.000000 0.000000 0.000000 0.000000 0.000000 0.000000 0.000000 0.000000 0.000000 0.000000 0.000000 0.000000 0.000000 0.000000 0.000000 0.000000 0.000000 0.000000 0.000000 0.000000 0.000000 0.000000 0.000000 0.000000 0.000000 0.000000 0.000000 0.000000 0.000000 0.000000 0.000000 0.000000 0.000000 0.000000 0.000000 0.000000 0.000000 0.000000 0.000000 0.000000 0.000000 0.000000 0.000000 0.000000 0.000000 0.000000 0.000000 0.000000 0.000000 0.000000 0.000000 0.000000 0.000000 0.000000 0.000000 0.000000 0.000000 0.000000 0.000000 0.000000 0.000000 0.000000 0.000000 0.000000 0.000000
1.720599 1.627356 1.538588 1.454118 1.373770 1.297375 1.224769 1.155794 1.090294 1.028121 0.969131 0.913183 0.860143 0.809881 0.762270 0.717189 0.674522 0.634156 0.595982 0.559897 0.525799 0.493593 0.463186 0.434490 0.407418 0.381891 0.357828 0.335156 0.313803 0.293700 0.274782 0.256986 0.240253 0.224524 0.209747 0.195868 0.182839 0.170613 0.159144 0.148391 0.138312 0.128869 0.120026 0.111747 0.104000 0.096754 0.089979 0.083646 0.077730 0.072205 0.067048 0.062235 0.057746 0.053561 0.049660 0.046026 0.042641 0.039491 0.036559 0.033832 0.031297 0.028941 0.026752 0.024719 0.022832 0.021081 0.019457 0.017951 0.016556 0.015263 0.014066 0.012958 0.011932 0.010984 0.010107 0.009296 0.008547 0.007856 0.007218 0.006629 0.006085 0.005585 0.005123 0.004698 0.004306 0.003946 0.003614 0.003309 0.003029 0.002771 0.002534 0.002317 0.002117 0.001934 0.001766 0.001612 0.001471 0.001342 0.001223 0.001115 0.001016 0.000925 0.000842 0.000766 0.000697 0.000634 0.000576 0.000523 0.000475 0.000432 0.000392 0.000355 0.000322 0.000292 0.000265 0.000240 0.000217 0.000197 0.000178 0.000161 0.000145 0.000131 0.000119 0.000107 0.000097 0.000087 0.000079 0.000071 0.000064 0.000058 0.000052 0.000047 0.000042 0.000038 0.000034 0.000031 0.000027 0.000025 0.000022 0.000020 0.000018 0.000016 0.000014 0.000013 0.000012 0.000010 0.000009 0.000008 0.000007 0.000007 0.000006 0.000005 0.000005 0.000004 0.000004 0.000003 0.000003 0.000003 0.000002 0.000002 0.000002 0.000002 0.000001 0.000001 0.000001 0.000001 0.000001 0.000001 0.000001 0.000001 0.000001 0.000001 0.000000 0.000000 0.000000 0.000000 0.000000 0.000000 0.000000 0.000000 0.000000 0.000000 0.000000 0.000000 0.000000 0.000000 0.000000 0.000000 0.000000 0.000000 0.000000 0.000000 0.000000 0.000000 0.000000 0.000000 0.000000 0.000000 0.000000 0.000000 0.000000 0.000000 0.000000 0.000000 0.000000 0.000000 0.000000 0.000000 0.000000 0.000000 0.000000 0.000000 0.000000 0.000000 0.000000 0.000000 0.000000 0.000000 0.000000 0.000000 0.000000 0.000000 0.000000 0.000000 0.000000 0.000000 0.000000 0.000000 0.000000 0.000000 0.000000 0.000000 0.000000 0.000000 0.000000 0.000000 0.000000 0.000000 0.000000 0.000000 0.000000 0.000000 0.000000 0.000000 0.000000 0.000000 0.000000 0.000000 0.000000 0.000000 0.000000 0.000000 0.000000 0.000000 0.000000 0.000000 0.000000 0.000000 0.000000 0.000000 0.000000 0.000000 0.000000 0.000000 0.000000 0.000000 0.000000 0.000000 0.000000 0.000000 0.000000 0.000000 0.000000 0.000000 0.000000 0.000000 0.000000 0.000000 0.000000 0.000000 0.000000 0.000000 0.000000 0.000000 0.000000 0.000000 0.000000 0.000000 0.000000 0.000000 0.000000 0.000000 0.000000 0.000000 0.000000 0.000000 0.000000 0.000000 0.000000 0.000000 0.000000 0.000000 0.000000 0.000000 0.000000 0.000000 0.000000 0.000000 0.000000 0.000000 0.000000 0.000000 0.000000 0.000000
1.720599 1.627356 1.538588 1.454118 1.373770 1.297375 1.224769 1.155794 1.090294 1.028121 0.969131 0.913183 0.860143 0.809881 0.762270 0.717189 0.674522 0.634156 0.595982 0.559897 0.525799 0.493593 0.463186 0.434490 0.407418 0.381891 0.357828 0.335156 0.313803 0.293700 0.274782 0.256986 0.240253 0.224524 0.209747 0.195868 0.182839 0.170613 0.159144 0.148391 0.138312 0.128869 0.120026 0.111747 0.104000 0.096754 0.089979 0.083646 0.077730 0.072205 0.067048 0.062235 0.057746 0.053561 0.049660 0.046026 0.042641 0.039491 0.036559 0.033832 0.031297 0.028941 0.026752 0.024719 0.022832 0.021081 0.019457 0.017951 0.016556 0.015263 0.014066 0.012958 0.011932 0.010984 0.010107 0.009296 0.008547 0.007856 0.007218 0.006629 0.006085 0.005585 0.005123 0.004698 0.004306 0.003946 0.003614 0.003309 0.003029 0.002771 0.002534 0.002317 0.002117 0.001934 0.001766 0.001612 0.001471 0.001342 0.001223 0.001115 0.001016 0.000925 0.000842 0.000766 0.000697 0.000634 0.000576 0.000523 0.000475 0.000432 0.000392 0.000355 0.000322 0.000292 0.000265 0.000240 0.000217 0.000197 0.000178 0.000161 0.000145 0.000131 0.000119 0.000107 0.000097 0.000087 0.000079 0.000071 0.000064 0.000058 0.000052 0.000047 0.000042 0.000038 0.000034 0.000031 0.000027 0.000025 0.000022 0.000020 0.000018 0.000016 0.000014 0.000013 0.000012 0.000010 0.000009 0.000008 0.000007 0.000007 0.000006 0.000005 0.000005 0.000004 0.000004 0.000003 0.000003 0.000003 0.000002 0.000002 0.000002 0.000002 0.000001 0.000001 0.000001 0.000001 0.000001 0.000001 0.000001 0.000001 0.000001 0.000001 0.000000 0.000000 0.000000 0.000000 0.000000 0.000000 0.000000 0.000000 0.000000 0.000000 0.000000 0.000000 0.000000 0.000000 0.000000 0.000000 0.000000 0.000000 0.000000 0.000000 0.000000 0.000000 0.000000 0.000000 0.000000 0.000000 0.000000 0.000000 0.000000 0.000000 0.000000 0.000000 0.000000 0.000000 0.000000 0.000000 0.000000 0.000000 0.000000 0.000000 0.000000 0.000000 0.000000 0.000000 0.000000 0.000000 0.000000 0.000000 0.000000 0.000000 0.000000 0.000000 0.000000 0.000000 0.000000 0.000000 0.000000 0.000000 0.000000 0.000000 0.000000 0.000000 0.000000 0.000000 0.000000 0.000000 0.000000 0.000000 0.000000 0.000000 0.000000 0.000000 0.000000 0.000000 0.000000 0.000000 0.000000 0.000000 0.000000 0.000000 0.000000 0.000000 0.000000 0.000000 0.000000 0.000000 0.000000 0.000000 0.000000 0.000000 0.000000 0.000000 0.000000 0.000000 0.000000 0.000000 0.000000 0.000000 0.000000 0.000000 0.000000 0.000000 0.000000 0.000000 0.000000 0.000000 0.000000 0.000000 0.000000 0.000000 0.000000 0.000000 0.000000 0.000000 0.000000 0.000000 0.000000 0.000000 0.000000 0.000000 0.000000 0.000000 0.000000 0.000000 0.000000 0.000000 0.000000 0.000000 0.000000 0.000000 0.000000 0.000000 0.000000 0.000000 0.000000 0.000000 0.000000 0.000000 0.000000 0.000000 0.000000 0.000000
1.720599 1.627356 1.538588 1.454118 1.373770 1.297375 1.224769 1.155794 1.090294 1.028121 0.969131 0.913183 0.860143 0.809881 0.762270 0.717189 0.674522 0.634156 0.595982 0.559897 0.525799 0.493593 0.463186 0.434490 0.407418 0.381891 0.357828 0.335156 0.313803 0.293700 0.274782 0.256986 0.240253 0.224524 0.209747 0.195868 0.182839 0.170613 0.159144 0.148391 0.138312 0.128869 0.120026 0.111747 0.104000 0.096754 0.089979 0.083646 0.077730 0.072205 0.067048 0.062235 0.057746 0.053561 0.049660 0.046026 0.042641 0.039491 0.036559 0.033832 0.031297 0.028941 0.026752 0.024719 0.022832 0.021081 0.019457 0.017951 0.016556 0.015263 0.014066 0.012958 0.011932 0.010984 0.010107 0.009296 0.008547 0.007856 0.007218 0.006629 0.006085 0.005585 0.005123 0.004698 0.004306 0.003946 0.003614 0.003309 0.003029 0.002771 0.002534 0.002317 0.002117 0.001934 0.001766 0.001612 0.001471 0.001342 0.001223 0.001115 0.001016 0.000925 0.000842 0.000766 0.000697 0.000634 0.000576 0.000523 0.000475 0.000432 0.000392 0.000355 0.000322 0.000292 0.000265 0.000240 0.000217 0.000197 0.000178 0.000161 0.000145 0.000131 0.000119 0.000107 0.000097 0.000087 0.000079 0.000071 0.000064 0.000058 0.000052 0.000047 0.000042 0.000038 0.000034 0.000031 0.000027 0.000025 0.000022 0.000020 0.000018 0.000016 0.000014 0.000013 0.000012 0.000010 0.000009 0.000008 0.000007 0.000007 0.000006 0.000005 0.000005 0.000004 0.000004 0.000003 0.000003 0.000003 0.000002 0.000002 0.000002 0.000002 0.000001 0.000001 0.000001 0.000001 0.000001 0.000001 0.000001 0.000001 0.000001 0.000001 0.000000 0.000000 0.000000 0.000000 0.000000 0.000000 0.000000 0.000000 0.000000 0.000000 0.000000 0.000000 0.000000 0.000000 0.000000 0.000000 0.000000 0.000000 0.000000 0.000000 0.000000 0.000000 0.000000 0.000000 0.000000 0.000000 0.000000 0.000000 0.000000 0.000000 0.000000 0.000000 0.000000 0.000000 0.000000 0.000000 0.000000 0.000000 0.000000 0.000000 0.000000 0.000000 0.000000 0.000000 0.000000 0.000000 0.000000 0.000000 0.000000 0.000000 0.000000 0.000000 0.000000 0.000000 0.000000 0.000000 0.000000 0.000000 0.000000 0.000000 0.000000 0.000000 0.000000 0.000000 0.000000 0.000000 0.000000 0.000000 0.000000 0.000000 0.000000 0.000000 0.000000 0.000000 0.000000 0.000000 0.000000 0.000000 0.000000 0.000000 0.000000 0.000000 0.000000 0.000000 0.000000 0.000000 0.000000 0.000000 0.000000 0.000000 0.000000 0.000000 0.000000 0.000000 0.000000 0.000000 0.000000 0.000000 0.000000 0.000000 0.000000 0.000000 0.000000 0.000000 0.000000 0.000000 0.000000 0.000000 0.000000 0.000000 0.000000 0.000000 0.000000 0.000000 0.000000 0.000000 0.000000 0.000000 0.000000 0.000000 0.000000 0.000000 0.000000 0.000000 0.000000 0.000000 0.000000 0.000000 0.000000 0.000000 0.000000 0.000000 0.000000 0.000000 0.000000 0.000000 0.000000 0.000000 0.000000 0.000000 0.000000 0.000000
1.720599 1.627356 1.538588 1.454118 1.373770 1.297375 1.224769 1.155794 1.090294 1.028121 0.969131 0.913183 0.860143 0.809881 0.762270 0.717189 0.674522 0.634156 0.595982 0.559897 0.525799 0.493593 0.463186 0.434490 0.407418 0.381891 0.357828 0.335156 0.313803 0.293700 0.274782 0.256986 0.240253 0.224524 0.209747 0.195868 0.182839 0.170613 0.159144 0.148391 0.138312 0.128869 0.120026 0.111747 0.104000 0.096754 0.089979 0.083646 0.077730 0.072205 0.067048 0.062235 0.057746 0.053561 0.049660 0.046026 0.042641 0.039491 0.036559 0.033832 0.031297 0.028941 0.026752 0.024719 0.022832 0.021081 0.019457 0.017951 0.016556 0.015263 0.014066 0.012958 0.011932 0.010984 0.010107 0.009296 0.008547 0.007856 0.007218 0.006629 0.006085 0.005585 0.005123 0.004698 0.004306 0.003946 0.003614 0.003309 0.003029 0.002771 0.002534 0.002317 0.002117 0.001934 0.001766 0.001612 0.001471 0.001342 0.001223 0.001115 0.001016 0.000925 0.000842 0.000766 0.000697 0.000634 0.000576 0.000523 0.000475 0.000432 0.000392 0.000355 0.000322 0.000292 0.000265 0.000240 0.000217 0.000197 0.000178 0.000161 0.000145 0.000131 0.000119 0.000107 0.000097 0.000087 0.000079 0.000071 0.000064 0.000058 0.000052 0.000047 0.000042 0.000038 0.000034 0.000031 0.000027 0.000025 0.000022 0.000020 0.000018 0.000016 0.000014 0.000013 0.000012 0.000010 0.000009 0.000008 0.000007 0.000007 0.000006 0.000005 0.000005 0.000004 0.000004 0.000003 0.000003 0.000003 0.000002 0.000002 0.000002 0.000002 0.000001 0.000001 0.000001 0.000001 0.000001 0.000001 0.000001 0.000001 0.000001 0.000001 0.000000 0.000000 0.000000 0.000000 0.000000 0.000000 0.000000 0.000000 0.000000 0.000000 0.000000 0.000000 0.000000 0.000000 0.000000 0.000000 0.000000 0.000000 0.000000 0.000000 0.000000 0.000000 0.000000 0.000000 0.000000 0.000000 0.000000 0.000000 0.000000 0.000000 0.000000 0.000000 0.000000 0.000000 0.000000 0.000000 0.000000 0.000000 0.000000 0.000000 0.000000 0.000000 0.000000 0.000000 0.000000 0.000000 0.000000 0.000000 0.000000 0.000000 0.000000 0.000000 0.000000 0.000000 0.000000 0.000000 0.000000 0.000000 0.000000 0.000000 0.000000 0.000000 0.000000 0.000000 0.000000 0.000000 0.000000 0.000000 0.000000 0.000000 0.000000 0.000000 0.000000 0.000000 0.000000 0.000000 0.000000 0.000000 0.000000 0.000000 0.000000 0.000000 0.000000 0.000000 0.000000 0.000000 0.000000 0.000000 0.000000 0.000000 0.000000 0.000000 0.000000 0.000000 0.000000 0.000000 0.000000 0.000000 0.000000 0.000000 0.000000 0.000000 0.000000 0.000000 0.000000 0.000000 0.000000 0.000000 0.000000 0.000000 0.000000 0.000000 0.000000 0.000000 0.000000 0.000000 0.000000 0.000000 0.000000 0.000000 0.000000 0.000000 0.000000 0.000000 0.000000 0.000000 0.000000 0.000000 0.000000 0.000000 0.000000 0.000000 0.000000 0.000000 0.000000 0.000000 0.000000 0.000000 0.000000 0.000000 0.000000 0.000000
1.720599 1.627356 1.538588 1.454118 1.373770 1.297375 1.224769 1.155794 1.090294 1.028121 0.969131 0.913183 0.860143 0.809881 0.762270 0.717189 0.674522 0.634156 0.595982 0.559897 0.525799 0.493593 0.463186 0.434490 0.407418 0.381891 0.357828 0.335156 0.313803 0.293700 0.274782 0.256986 0.240253 0.224524 0.209747 0.195868 0.182839 0.170613 0.159144 0.148391 0.138312 0.128869 0.120026 0.111747 0.104000 0.096754 0.089979 0.083646 0.077730 0.072205 0.067048 0.062235 0.057746 0.053561 0.049660 0.046026 0.042641 0.039491 0.036559 0.033832 0.031297 0.028941 0.026752 0.024719 0.022832 0.021081 0.019457 0.017951 0.016556 0.015263 0.014066 0.012958 0.011932 0.010984 0.010107 0.009296 0.008547 0.007856 0.007218 0.006629 0.006085 0.005585 0.005123 0.004698 0.004306 0.003946 0.003614 0.003309 0.003029 0.002771 0.002534 0.002317 0.002117 0.001934 0.001766 0.001612 0.001471 0.001342 0.001223 0.001115 0.001016 0.000925 0.000842 0.000766 0.000697 0.000634 0.000576 0.000523 0.000475 0.000432 0.000392 0.000355 0.000322 0.000292 0.000265 0.000240 0.000217 0.000197 0.000178 0.000161 0.000145 0.000131 0.000119 0.000107 0.000097 0.000087 0.000079 0.000071 0.000064 0.000058 0.000052 0.000047 0.000042 0.000038 0.000034 0.000031 0.000027 0.000025 0.000022 0.000020 0.000018 0.000016 0.000014 0.000013 0.000012 0.000010 0.000009 0.000008 0.000007 0.000007 0.000006 0.000005 0.000005 0.000004 0.000004 0.000003 0.000003 0.000003 0.000002 0.000002 0.000002 0.000002 0.000001 0.000001 0.000001 0.000001 0.000001 0.000001 0.000001 0.000001 0.000001 0.000001 0.000000 0.000000 0.000000 0.000000 0.000000 0.000000 0.000000 0.000000 0.000000 0.000000 0.000000 0.000000 0.000000 0.000000 0.000000 0.000000 0.000000 0.000000 0.000000 0.000000 0.000000 0.000000 0.000000 0.000000 0.000000 0.000000 0.000000 0.000000 0.000000 0.000000 0.000000 0.000000 0.000000 0.000000 0.000000 0.000000 0.000000 0.000000 0.000000 0.000000 0.000000 0.000000 0.000000 0.000000 0.000000 0.000000 0.000000 0.000000 0.000000 0.000000 0.000000 0.000000 0.000000 0.000000 0.000000 0.000000 0.000000 0.000000 0.000000 0.000000 0.000000 0.000000 0.000000 0.000000 0.000000 0.000000 0.000000 0.000000 0.000000 0.000000 0.000000 0.000000 0.000000 0.000000 0.000000 0.000000 0.000000 0.000000 0.000000 0.000000 0.000000 0.000000 0.000000 0.000000 0.000000 0.000000 0.000000 0.000000 0.000000 0.000000 0.000000 0.000000 0.000000 0.000000 0.000000 0.000000 0.000000 0.000000 0.000000 0.000000 0.000000 0.000000 0.000000 0.000000 0.000000 0.000000 0.000000 0.000000 0.000000 0.000000 0.000000 0.000000 0.000000 0.000000 0.000000 0.000000 0.000000 0.000000 0.000000 0.000000 0.000000 0.000000 0.000000 0.000000 0.000000 0.000000 0.000000 0.000000 0.000000 0.000000 0.000000 0.000000 0.000000 0.000000 0.000000 0.000000 0.000000 0.000000 0.000000 0.000000 0.000000 0.000000
1.720599 1.627356 1.538588 1.454118 1.373770 1.297375 1.224769 1.155794 1.090294 1.028121 0.969131 0.913183 0.860143 0.809881 0.762270 0.717189 0.674522 0.634156 0.595982 0.559897 0.525799 0.493593 0.463186 0.434490 0.407418 0.381891 0.357828 0.335156 0.313803 0.293700 0.274782 0.256986 0.240253 0.224524 0.209747 0.195868 0.182839 0.170613 0.159144 0.148391 0.138312 0.128869 0.120026 0.111747 0.104000 0.096754 0.089979 0.083646 0.077730 0.072205 0.067048 0.062235 0.057746 0.053561 0.049660 0.046026 0.042641 0.039491 0.036559 0.033832 0.031297 0.028941 0.026752 0.024719 0.022832 0.021081 0.019457 0.017951 0.016556 0.015263 0.014066 0.012958 0.011932 0.010984 0.010107 0.009296 0.008547 0.007856 0.007218 0.006629 0.006085 0.005585 0.005123 0.004698 0.004306 0.003946 0.003614 0.003309 0.003029 0.002771 0.002534 0.002317 0.002117 0.001934 0.001766 0.001612 0.001471 0.001342 0.001223 0.001115 0.001016 0.000925 0.000842 0.000766 0.000697 0.000634 0.000576 0.000523 0.000475 0.000432 0.000392 0.000355 0.000322 0.000292 0.000265 0.000240 0.000217 0.000197 0.000178 0.000161 0.000145 0.000131 0.000119 0.000107 0.000097 0.000087 0.000079 0.000071 0.000064 0.000058 0.000052 0.000047 0.000042 0.000038 0.000034 0.000031 0.000027 0.000025 0.000022 0.000020 0.000018 0.000016 0.000014 0.000013 0.000012 0.000010 0.000009 0.000008 0.000007 0.000007 0.000006 0.000005 0.000005 0.000004 0.000004 0.000003 0.000003 0.000003 0.000002 0.000002 0.000002 0.000002 0.000001 0.000001 0.000001 0.000001 0.000001 0.000001 0.000001 0.000001 0.000001 0.000001 0.000000 0.000000 0.000000 0.000000 0.000000 0.000000 0.000000 0.000000 0.000000 0.000000 0.000000 0.000000 0.000000 0.000000 0.000000 0.000000 0.000000 0.000000 0.000000 0.000000 0.000000 0.000000 0.000000 0.000000 0.000000 0.000000 0.000000 0.000000 0.000000 0.000000 0.000000 0.000000 0.000000 0.000000 0.000000 0.000000 0.000000 0.000000 0.000000 0.000000 0.000000 0.000000 0.000000 0.000000 0.000000 0.000000 0.000000 0.000000 0.000000 0.000000 0.000000 0.000000 0.000000 0.000000 0.000000 0.000000 0.000000 0.000000 0.000000 0.000000 0.000000 0.000000 0.000000 0.000000 0.000000 0.000000 0.000000 0.000000 0.000000 0.000000 0.000000 0.000000 0.000000 0.000000 0.000000 0.000000 0.000000 0.000000 0.000000 0.000000 0.000000 0.000000 0.000000 0.000000 0.000000 0.000000 0.000000 0.000000 0.000000 0.000000 0.000000 0.000000 0.000000 0.000000 0.000000 0.000000 0.000000 0.000000 0.000000 0.000000 0.000000 0.000000 0.000000 0.000000 0.000000 0.000000 0.000000 0.000000 0.000000 0.000000 0.000000 0.000000 0.000000 0.000000 0.000000 0.000000 0.000000 0.000000 0.000000 0.000000 0.000000 0.000000 0.000000 0.000000 0.000000 0.000000 0.000000 0.000000 0.000000 0.000000 0.000000 0.000000 0.000000 0.000000 0.000000 0.000000 0.000000 0.000000 0.000000 0.000000 0.000000 0.000000
1.720599 1.627356 1.538588 1.454118 1.373770 1.297375 1.224769 1.155794 1.090294 1.028121 0.969131 0.913183 0.860143 0.809881 0.762270 0.717189 0.674522 0.634156 0.595982 0.559897 0.525799 0.493593 0.463186 0.434490 0.407418 0.381891 0.357828 0.335156 0.313803 0.293700 0.274782 0.256986 0.240253 0.224524 0.209747 0.195868 0.182839 0.170613 0.159144 0.148391 0.138312 0.128869 0.120026 0.111747 0.104000 0.096754 0.089979 0.083646 0.077730 0.072205 0.067048 0.062235 0.057746 0.053561 0.049660 0.046026 0.042641 0.039491 0.036559 0.033832 0.031297 0.028941 0.026752 0.024719 0.022832 0.021081 0.019457 0.017951 0.016556 0.015263 0.014066 0.012958 0.011932 0.010984 0.010107 0.009296 0.008547 0.007856 0.007218 0.006629 0.006085 0.005585 0.005123 0.004698 0.004306 0.003946 0.003614 0.003309 0.003029 0.002771 0.002534 0.002317 0.002117 0.001934 0.001766 0.001612 0.001471 0.001342 0.001223 0.001115 0.001016 0.000925 0.000842 0.000766 0.000697 0.000634 0.000576 0.000523 0.000475 0.000432 0.000392 0.000355 0.000322 0.000292 0.000265 0.000240 0.000217 0.000197 0.000178 0.000161 0.000145 0.000131 0.000119 0.000107 0.000097 0.000087 0.000079 0.000071 0.000064 0.000058 0.000052 0.000047 0.000042 0.000038 0.000034 0.000031 0.000027 0.000025 0.000022 0.000020 0.000018 0.000016 0.000014 0.000013 0.000012 0.000010 0.000009 0.000008 0.000007 0.000007 0.000006 0.000005 0.000005 0.000004 0.000004 0.000003 0.000003 0.000003 0.000002 0.000002 0.000002 0.000002 0.000001 0.000001 0.000001 0.000001 0.000001 0.000001 0.000001 0.000001 0.000001 0.000001 0.000000 0.000000 0.000000 0.000000 0.000000 0.000000 0.000000 0.000000 0.000000 0.000000 0.000000 0.000000 0.000000 0.000000 0.000000 0.000000 0.000000 0.000000 0.000000 0.000000 0.000000 0.000000 0.000000 0.000000 0.000000 0.000000 0.000000 0.000000 0.000000 0.000000 0.000000 0.000000 0.000000 0.000000 0.000000 0.000000 0.000000 0.000000 0.000000 0.000000 0.000000 0.000000 0.000000 0.000000 0.000000 0.000000 0.000000 0.000000 0.000000 0.000000 0.000000 0.000000 0.000000 0.000000 0.000000 0.000000 0.000000 0.000000 0.000000 0.000000 0.000000 0.000000 0.000000 0.000000 0.000000 0.000000 0.000000 0.000000 0.000000 0.000000 0.000000 0.000000 0.000000 0.000000 0.000000 0.000000 0.000000 0.000000 0.000000 0.000000 0.000000 0.000000 0.000000 0.000000 0.000000 0.000000 0.000000 0.000000 0.000000 0.000000 0.000000 0.000000 0.000000 0.000000 0.000000 0.000000 0.000000 0.000000 0.000000 0.000000 0.000000 0.000000 0.000000 0.000000 0.000000 0.000000 0.000000 0.000000 0.000000 0.000000 0.000000 0.000000 0.000000 0.000000 0.000000 0.000000 0.000000 0.000000 0.000000 0.000000 0.000000 0.000000 0.000000 0.000000 0.000000 0.000000 0.000000 0.000000 0.000000 0.000000 0.000000 0.000000 0.000000 0.000000 0.000000 0.000000 0.000000 0.000000 0.000000 0.000000 0.000000 0.000000
1.414809 1.336136 1.261467 1.190615 1.123403 1.059660 0.999225 0.941942 0.887662 0.836242 0.787548 0.741449 0.697819 0.656541 0.617499 0.580585 0.545694 0.512726 0.481587 0.452183 0.424430 0.398242 0.373540 0.350248 0.328294 0.307608 0.288123 0.269778 0.252511 0.236264 0.220984 0.206619 0.193117 0.180433 0.168521 0.157338 0.146845 0.137001 0.127770 0.119118 0.111011 0.103418 0.096308 0.089655 0.083430 0.077609 0.072167 0.067082 0.062332 0.057897 0.053758 0.049895 0.046294 0.042936 0.039806 0.036891 0.034177 0.031650 0.029300 0.027113 0.025081 0.023192 0.021437 0.019807 0.018295 0.016891 0.015590 0.014383 0.013264 0.012228 0.011269 0.010381 0.009559 0.008799 0.008097 0.007447 0.006847 0.006293 0.005782 0.005310 0.004875 0.004474 0.004104 0.003763 0.003450 0.003161 0.002895 0.002651 0.002426 0.002220 0.002030 0.001856 0.001696 0.001549 0.001415 0.001291 0.001178 0.001075 0.000980 0.000893 0.000814 0.000741 0.000674 0.000614 0.000558 0.000508 0.000461 0.000419 0.000381 0.000346 0.000314 0.000285 0.000258 0.000234 0.000212 0.000192 0.000174 0.000157 0.000142 0.000129 0.000116 0.000105 0.000095 0.000086 0.000077 0.000070 0.000063 0.000057 0.000051 0.000046 0.000042 0.000037 0.000034 0.000030 0.000027 0.000024 0.000022 0.000020 0.000018 0.000016 0.000014 0.000013 0.000011 0.000010 0.000009 0.000008 0.000007 0.000007 0.000006 0.000005 0.000005 0.000004 0.000004 0.000003 0.000003 0.000003 0.000002 0.000002 0.000002 0.000002 0.000001 0.000001 0.000001 0.000001 0.000001 0.000001 0.000001 0.000001 0.000001 0.000001 0.000000 0.000000 0.000000 0.000000 0.000000 0.000000 0.000000 0.000000 0.000000 0.000000 0.000000 0.000000 0.000000 0.000000 0.000000 0.000000 0.000000 0.000000 0.000000 0.000000 0.000000 0.000000 0.000000 0.000000 0.000000 0.000000 0.000000 0.000000 0.000000 0.000000 0.000000 0.000000 0.000000 0.000000 0.000000 0.000000 0.000000 0.000000 0.000000 0.000000 0.000000 0.000000 0.000000 0.000000 0.000000 0.000000 0.000000 0.000000 0.000000 0.000000 0.000000 0.000000 0.000000 0.000000 0.000000 0.000000 0.000000 0.000000 0.000000 0.000000 0.000000 0.000000 0.000000 0.000000 0.000000 0.000000 0.000000 0.000000 0.000000 0.000000 0.000000 0.000000 0.000000 0.000000 0.000000 0.000000 0.000000 0.000000 0.000000 0.000000 0.000000 0.000000 0.000000 0.000000 0.000000 0.000000 0.000000 0.000000 0.000000 0.000000 0.000000 0.000000 0.000000 0.000000 0.000000 0.000000 0.000000 0.000000 0.000000 0.000000 0.000000 0.000000 0.000000 0.000000 0.000000 0.000000 0.000000 0.000000 0.000000 0.000000 0.000000 0.000000 0.000000 0.000000 0.000000 0.000000 0.000000 0.000000 0.000000 0.000000 0.000000 0.000000 0.000000 0.000000 0.000000 0.000000 0.000000 0.000000 0.000000 0.000000 0.000000 0.000000 0.000000 0.000000 0.000000 0.000000 0.000000 0.000000 0.000000 0.000000 0.000000 0.000000 0.000000 0.000000
1.263071 1.193336 1.127091 1.064179 1.004452 0.947767 0.893986 0.842978 0.794615 0.748776 0.705343 0.664204 0.625251 0.588382 0.553496 0.520499 0.489300 0.459810 0.431947 0.405630 0.380783 0.357331 0.335205 0.314337 0.294663 0.276122 0.258655 0.242206 0.226721 0.212150 0.198443 0.185554 0.173440 0.162057 0.151367 0.141329 0.131909 0.123072 0.114785 0.107016 0.099736 0.092917 0.086533 0.080557 0.074966 0.069737 0.064849 0.060281 0.056014 0.052029 0.048310 0.044840 0.041604 0.038586 0.035775 0.033155 0.030716 0.028446 0.026333 0.024368 0.022542 0.020844 0.019267 0.017803 0.016443 0.015182 0.014012 0.012928 0.011922 0.010991 0.010129 0.009331 0.008592 0.007909 0.007278 0.006694 0.006155 0.005657 0.005197 0.004773 0.004382 0.004021 0.003689 0.003383 0.003101 0.002841 0.002602 0.002383 0.002181 0.001995 0.001825 0.001668 0.001524 0.001393 0.001272 0.001161 0.001059 0.000966 0.000881 0.000803 0.000731 0.000666 0.000606 0.000552 0.000502 0.000456 0.000415 0.000377 0.000342 0.000311 0.000282 0.000256 0.000232 0.000210 0.000191 0.000173 0.000156 0.000141 0.000128 0.000116 0.000105 0.000095 0.000085 0.000077 0.000070 0.000063 0.000057 0.000051 0.000046 0.000041 0.000037 0.000034 0.000030 0.000027 0.000024 0.000022 0.000020 0.000018 0.000016 0.000014 0.000013 0.000012 0.000010 0.000009 0.000008 0.000007 0.000007 0.000006 0.000005 0.000005 0.000004 0.000004 0.000003 0.000003 0.000003 0.000002 0.000002 0.000002 0.000002 0.000002 0.000001 0.000001 0.000001 0.000001 0.000001 0.000001 0.000001 0.000001 0.000001 0.000000 0.000000 0.000000 0.000000 0.000000 0.000000 0.000000 0.000000 0.000000 0.000000 0.000000 0.000000 0.000000 0.000000 0.000000 0.000000 0.000000 0.000000 0.000000 0.000000 0.000000 0.000000 0.000000 0.000000 0.000000 0.000000 0.000000 0.000000 0.000000 0.000000 0.000000 0.000000 0.000000 0.000000 0.000000 0.000000 0.000000 0.000000 0.000000 0.000000 0.000000 0.000000 0.000000 0.000000 0.000000 0.000000 0.000000 0.000000 0.000000 0.000000 0.000000 0.000000 0.000000 0.000000 0.000000 0.000000 0.000000 0.000000 0.000000 0.000000 0.000000 0.000000 0.000000 0.000000 0.000000 0.000000 0.000000 0.000000 0.000000 0.000000 0.000000 0.000000 0.000000 0.000000 0.000000 0.000000 0.000000 0.000000 0.000000 0.000000 0.000000 0.000000 0.000000 0.000000 0.000000 0.000000 0.000000 0.000000 0.000000 0.000000 0.000000 0.000000 0.000000 0.000000 0.000000 0.000000 0.000000 0.000000 0.000000 0.000000 0.000000 0.000000 0.000000 0.000000 0.000000 0.000000 0.000000 0.000000 0.000000 0.000000 0.000000 0.000000 0.000000 0.000000 0.000000 0.000000 0.000000 0.000000 0.000000 0.000000 0.000000 0.000000 0.000000 0.000000 0.000000 0.000000 0.000000 0.000000 0.000000 0.000000 0.000000 0.000000 0.000000 0.000000 0.000000 0.000000 0.000000 0.000000 0.000000 0.000000 0.000000 0.000000 0.000000 0.000000 0.000000
1.152472 1.089024 1.028729 0.971451 0.917056 0.865417 0.816410 0.769918 0.725827 0.684027 0.644413 0.606885 0.571344 0.537698 0.505857 0.475735 0.447250 0.420322 0.394876 0.370839 0.348142 0.326717 0.306502 0.287434 0.269456 0.252511 0.236547 0.221511 0.207357 0.194036 0.181505 0.169721 0.158645 0.148237 0.138461 0.129282 0.120668 0.112586 0.105006 0.097901 0.091243 0.085006 0.079166 0.073700 0.068585 0.063802 0.059331 0.055152 0.051248 0.047603 0.044201 0.041026 0.038065 0.035305 0.032732 0.030336 0.028104 0.026027 0.024094 0.022297 0.020626 0.019072 0.017629 0.016289 0.015046 0.013892 0.012821 0.011829 0.010909 0.010057 0.009268 0.008538 0.007862 0.007237 0.006659 0.006125 0.005632 0.005176 0.004755 0.004367 0.004010 0.003680 0.003375 0.003095 0.002837 0.002600 0.002381 0.002180 0.001995 0.001826 0.001670 0.001526 0.001395 0.001274 0.001164 0.001062 0.000969 0.000884 0.000806 0.000734 0.000669 0.000609 0.000555 0.000505 0.000459 0.000418 0.000380 0.000345 0.000313 0.000284 0.000258 0.000234 0.000212 0.000192 0.000174 0.000158 0.000143 0.000129 0.000117 0.000106 0.000096 0.000087 0.000078 0.000071 0.000064 0.000058 0.000052 0.000047 0.000042 0.000038 0.000034 0.000031 0.000028 0.000025 0.000022 0.000020 0.000018 0.000016 0.000015 0.000013 0.000012 0.000011 0.000009 0.000008 0.000008 0.000007 0.000006 0.000005 0.000005 0.000004 0.000004 0.000003 0.000003 0.000003 0.000002 0.000002 0.000002 0.000002 0.000002 0.000001 0.000001 0.000001 0.000001 0.000001 0.000001 0.000001 0.000001 0.000001 0.000000 0.000000 0.000000 0.000000 0.000000 0.000000 0.000000 0.000000 0.000000 0.000000 0.000000 0.000000 0.000000 0.000000 0.000000 0.000000 0.000000 0.000000 0.000000 0.000000 0.000000 0.000000 0.000000 0.000000 0.000000 0.000000 0.000000 0.000000 0.000000 0.000000 0.000000 0.000000 0.000000 0.000000 0.000000 0.000000 0.000000 0.000000 0.000000 0.000000 0.000000 0.000000 0.000000 0.000000 0.000000 0.000000 0.000000 0.000000 0.000000 0.000000 0.000000 0.000000 0.000000 0.000000 0.000000 0.000000 0.000000 0.000000 0.000000 0.000000 0.000000 0.000000 0.000000 0.000000 0.000000 0.000000 0.000000 0.000000 0.000000 0.000000 0.000000 0.000000 0.000000 0.000000 0.000000 0.000000 0.000000 0.000000 0.000000 0.000000 0.000000 0.000000 0.000000 0.000000 0.000000 0.000000 0.000000 0.000000 0.000000 0.000000 0.000000 0.000000 0.000000 0.000000 0.000000 0.000000 0.000000 0.000000 0.000000 0.000000 0.000000 0.000000 0.000000 0.000000 0.000000 0.000000 0.000000 0.000000 0.000000 0.000000 0.000000 0.000000 0.000000 0.000000 0.000000 0.000000 0.000000 0.000000 0.000000 0.000000 0.000000 0.000000 0.000000 0.000000 0.000000 0.000000 0.000000 0.000000 0.000000 0.000000 0.000000 0.000000 0.000000 0.000000 0.000000 0.000000 0.000000 0.000000 0.000000 0.000000 0.000000 0.000000 0.000000 0.000000 0.000000 0.000000
1.061952 1.003581 0.948101 0.895388 0.845319 0.797780 0.752657 0.709844 0.669235 0.630733 0.594239 0.559663 0.526914 0.495908 0.466563 0.438800 0.412543 0.387720 0.364261 0.342099 0.321171 0.301416 0.282774 0.265189 0.248608 0.232980 0.218255 0.204387 0.191330 0.179043 0.167483 0.156612 0.146393 0.136791 0.127772 0.119303 0.111355 0.103898 0.096904 0.090348 0.084204 0.078449 0.073060 0.068016 0.063297 0.058883 0.054756 0.050900 0.047298 0.043934 0.040794 0.037864 0.035132 0.032584 0.030210 0.027998 0.025939 0.024022 0.022238 0.020579 0.019036 0.017603 0.016271 0.015034 0.013887 0.012821 0.011834 0.010918 0.010069 0.009282 0.008554 0.007880 0.007256 0.006679 0.006146 0.005653 0.005198 0.004777 0.004389 0.004031 0.003701 0.003396 0.003115 0.002857 0.002619 0.002400 0.002198 0.002012 0.001842 0.001685 0.001541 0.001409 0.001287 0.001176 0.001074 0.000980 0.000894 0.000816 0.000744 0.000678 0.000618 0.000562 0.000512 0.000466 0.000424 0.000385 0.000350 0.000318 0.000289 0.000262 0.000238 0.000216 0.000196 0.000178 0.000161 0.000146 0.000132 0.000119 0.000108 0.000098 0.000088 0.000080 0.000072 0.000065 0.000059 0.000053 0.000048 0.000043 0.000039 0.000035 0.000032 0.000028 0.000026 0.000023 0.000021 0.000019 0.000017 0.000015 0.000013 0.000012 0.000011 0.000010 0.000009 0.000008 0.000007 0.000006 0.000006 0.000005 0.000004 0.000004 0.000004 0.000003 0.000003 0.000003 0.000002 0.000002 0.000002 0.000002 0.000001 0.000001 0.000001 0.000001 0.000001 0.000001 0.000001 0.000001 0.000001 0.000000 0.000000 0.000000 0.000000 0.000000 0.000000 0.000000 0.000000 0.000000 0.000000 0.000000 0.000000 0.000000 0.000000 0.000000 0.000000 0.000000 0.000000 0.000000 0.000000 0.000000 0.000000 0.000000 0.000000 0.000000 0.000000 0.000000 0.000000 0.000000 0.000000 0.000000 0.000000 0.000000 0.000000 0.000000 0.000000 0.000000 0.000000 0.000000 0.000000 0.000000 0.000000 0.000000 0.000000 0.000000 0.000000 0.000000 0.000000 0.000000 0.000000 0.000000 0.000000 0.000000 0.000000 0.000000 0.000000 0.000000 0.000000 0.000000 0.000000 0.000000 0.000000 0.000000 0.000000 0.000000 0.000000 0.000000 0.000000 0.000000 0.000000 0.000000 0.000000 0.000000 0.000000 0.000000 0.000000 0.000000 0.000000 0.000000 0.000000 0.000000 0.000000 0.000000 0.000000 0.000000 0.000000 0.000000 0.000000 0.000000 0.000000 0.000000 0.000000 0.000000 0.000000 0.000000 0.000000 0.000000 0.000000 0.000000 0.000000 0.000000 0.000000 0.000000 0.000000 0.000000 0.000000 0.000000 0.000000 0.000000 0.000000 0.000000 0.000000 0.000000 0.000000 0.000000 0.000000 0.000000 0.000000 0.000000 0.000000 0.000000 0.000000 0.000000 0.000000 0.000000 0.000000 0.000000 0.000000 0.000000 0.000000 0.000000 0.000000 0.000000 0.000000 0.000000 0.000000 0.000000 0.000000 0.000000 0.000000 0.000000 0.000000 0.000000 0.000000 0.000000 0.000000 0.000000
0.984069 0.930037 0.878675 0.829868 0.783505 0.739479 0.697687 0.658030 0.620413 0.584743 0.550931 0.518893 0.488547 0.459814 0.432618 0.406886 0.382549 0.359540 0.337794 0.317250 0.297849 0.279533 0.262250 0.245946 0.230572 0.216082 0.202428 0.189568 0.177460 0.166065 0.155345 0.145264 0.135787 0.126882 0.118517 0.110663 0.103291 0.096375 0.089888 0.083807 0.078109 0.072770 0.067772 0.063093 0.058716 0.054622 0.050794 0.047217 0.043875 0.040755 0.037842 0.035125 0.032590 0.030227 0.028025 0.025973 0.024062 0.022284 0.020629 0.019090 0.017659 0.016330 0.015094 0.013947 0.012882 0.011894 0.010978 0.010128 0.009341 0.008611 0.007936 0.007310 0.006732 0.006196 0.005702 0.005244 0.004822 0.004432 0.004072 0.003740 0.003433 0.003151 0.002890 0.002650 0.002429 0.002226 0.002039 0.001867 0.001709 0.001563 0.001430 0.001307 0.001194 0.001091 0.000996 0.000909 0.000830 0.000757 0.000690 0.000629 0.000573 0.000522 0.000475 0.000432 0.000393 0.000358 0.000325 0.000295 0.000268 0.000243 0.000221 0.000200 0.000182 0.000165 0.000149 0.000135 0.000122 0.000111 0.000100 0.000091 0.000082 0.000074 0.000067 0.000060 0.000055 0.000049 0.000044 0.000040 0.000036 0.000033 0.000029 0.000026 0.000024 0.000021 0.000019 0.000017 0.000015 0.000014 0.000012 0.000011 0.000010 0.000009 0.000008 0.000007 0.000006 0.000006 0.000005 0.000005 0.000004 0.000004 0.000003 0.000003 0.000003 0.000002 0.000002 0.000002 0.000002 0.000001 0.000001 0.000001 0.000001 0.000001 0.000001 0.000001 0.000001 0.000001 0.000001 0.000000 0.000000 0.000000 0.000000 0.000000 0.000000 0.000000 0.000000 0.000000 0.000000 0.000000 0.000000 0.000000 0.000000 0.000000 0.000000 0.000000 0.000000 0.000000 0.000000 0.000000 0.000000 0.000000 0.000000 0.000000 0.000000 0.000000 0.000000 0.000000 0.000000 0.000000 0.000000 0.000000 0.000000 0.000000 0.000000 0.000000 0.000000 0.000000 0.000000 0.000000 0.000000 0.000000 0.000000 0.000000 0.000000 0.000000 0.000000 0.000000 0.000000 0.000000 0.000000 0.000000 0.000000 0.000000 0.000000 0.000000 0.000000 0.000000 0.000000 0.000000 0.000000 0.000000 0.000000 0.000000 0.000000 0.000000 0.000000 0.000000 0.000000 0.000000 0.000000 0.000000 0.000000 0.000000 0.000000 0.000000 0.000000 0.000000 0.000000 0.000000 0.000000 0.000000 0.000000 0.000000 0.000000 0.000000 0.000000 0.000000 0.000000 0.000000 0.000000 0.000000 0.000000 0.000000 0.000000 0.000000 0.000000 0.000000 0.000000 0.000000 0.000000 0.000000 0.000000 0.000000 0.000000 0.000000 0.000000 0.000000 0.000000 0.000000 0.000000 0.000000 0.000000 0.000000 0.000000 0.000000 0.000000 0.000000 0.000000 0.000000 0.000000 0.000000 0.000000 0.000000 0.000000 0.000000 0.000000 0.000000 0.000000 0.000000 0.000000 0.000000 0.000000 0.000000 0.000000 0.000000 0.000000 0.000000 0.000000 0.000000 0.000000 0.000000 0.000000 0.000000 0.000000 0.000000
0.915150 0.864941 0.817209 0.771848 0.728754 0.687830 0.648980 0.612111 0.577137 0.543971 0.512531 0.482739 0.454518 0.427796 0.402503 0.378571 0.355934 0.334532 0.314305 0.295194 0.277146 0.260107 0.244028 0.228860 0.214558 0.201076 0.188372 0.176407 0.165142 0.154539 0.144564 0.135184 0.126365 0.118079 0.110295 0.102986 0.096127 0.089690 0.083654 0.077995 0.072692 0.067725 0.063073 0.058719 0.054645 0.050835 0.047273 0.043944 0.040834 0.037930 0.035219 0.032690 0.030331 0.028132 0.026082 0.024173 0.022395 0.020740 0.019200 0.017767 0.016436 0.015198 0.014048 0.012981 0.011990 0.011070 0.010217 0.009426 0.008693 0.008014 0.007386 0.006804 0.006265 0.005767 0.005307 0.004881 0.004488 0.004125 0.003790 0.003480 0.003195 0.002932 0.002690 0.002467 0.002261 0.002072 0.001898 0.001737 0.001590 0.001455 0.001331 0.001216 0.001112 0.001015 0.000927 0.000846 0.000772 0.000704 0.000642 0.000585 0.000533 0.000486 0.000442 0.000402 0.000366 0.000333 0.000302 0.000275 0.000250 0.000227 0.000206 0.000187 0.000169 0.000153 0.000139 0.000126 0.000114 0.000103 0.000093 0.000084 0.000076 0.000069 0.000062 0.000056 0.000051 0.000046 0.000041 0.000037 0.000034 0.000030 0.000027 0.000025 0.000022 0.000020 0.000018 0.000016 0.000014 0.000013 0.000012 0.000010 0.000009 0.000008 0.000008 0.000007 0.000006 0.000005 0.000005 0.000004 0.000004 0.000003 0.000003 0.000003 0.000002 0.000002 0.000002 0.000002 0.000002 0.000001 0.000001 0.000001 0.000001 0.000001 0.000001 0.000001 0.000001 0.000001 0.000000 0.000000 0.000000 0.000000 0.000000 0.000000 0.000000 0.000000 0.000000 0.000000 0.000000 0.000000 0.000000 0.000000 0.000000 0.000000 0.000000 0.000000 0.000000 0.000000 0.000000 0.000000 0.000000 0.000000 0.000000 0.000000 0.000000 0.000000 0.000000 0.000000 0.000000 0.000000 0.000000 0.000000 0.000000 0.000000 0.000000 0.000000 0.000000 0.000000 0.000000 0.000000 0.000000 0.000000 0.000000 0.000000 0.000000 0.000000 0.000000 0.000000 0.000000 0.000000 0.000000 0.000000 0.000000 0.000000 0.000000 0.000000 0.000000 0.000000 0.000000 0.000000 0.000000 0.000000 0.000000 0.000000 0.000000 0.000000 0.000000 0.000000 0.000000 0.000000 0.000000 0.000000 0.000000 0.000000 0.000000 0.000000 0.000000 0.000000 0.000000 0.000000 0.000000 0.000000 0.000000 0.000000 0.000000 0.000000 0.000000 0.000000 0.000000 0.000000 0.000000 0.000000 0.000000 0.000000 0.000000 0.000000 0.000000 0.000000 0.000000 0.000000 0.000000 0.000000 0.000000 0.000000 0.000000 0.000000 0.000000 0.000000 0.000000 0.000000 0.000000 0.000000 0.000000 0.000000 0.000000 0.000000 0.000000 0.000000 0.000000 0.000000 0.000000 0.000000 0.000000 0.000000 0.000000 0.000000 0.000000 0.000000 0.000000 0.000000 0.000000 0.000000 0.000000 0.000000 0.000000 0.000000 0.000000 0.000000 0.000000 0.000000 0.000000 0.000000 0.000000 0.000000 0.000000 0.000000
0.853055 0.806281 0.761812 0.719547 0.679394 0.641260 0.605056 0.570697 0.538101 0.507190 0.477886 0.450117 0.423812 0.398902 0.375324 0.353013 0.331910 0.311957 0.293098 0.275281 0.258453 0.242567 0.227575 0.213432 0.200095 0.187523 0.175678 0.164520 0.154015 0.144128 0.134826 0.126078 0.117854 0.110127 0.102868 0.096052 0.089654 0.083652 0.078022 0.072745 0.067799 0.063166 0.058827 0.054767 0.050967 0.047414 0.044091 0.040986 0.038086 0.035378 0.032849 0.030490 0.028290 0.026239 0.024327 0.022546 0.020888 0.019344 0.017908 0.016572 0.015330 0.014176 0.013103 0.012107 0.011183 0.010325 0.009530 0.008792 0.008108 0.007475 0.006889 0.006346 0.005844 0.005379 0.004950 0.004553 0.004186 0.003847 0.003535 0.003246 0.002980 0.002735 0.002509 0.002301 0.002109 0.001932 0.001770 0.001621 0.001483 0.001357 0.001241 0.001135 0.001037 0.000947 0.000865 0.000789 0.000720 0.000657 0.000599 0.000546 0.000497 0.000453 0.000412 0.000375 0.000341 0.000310 0.000282 0.000256 0.000233 0.000211 0.000192 0.000174 0.000158 0.000143 0.000130 0.000117 0.000106 0.000096 0.000087 0.000079 0.000071 0.000064 0.000058 0.000052 0.000047 0.000043 0.000039 0.000035 0.000031 0.000028 0.000025 0.000023 0.000021 0.000019 0.000017 0.000015 0.000013 0.000012 0.000011 0.000010 0.000009 0.000008 0.000007 0.000006 0.000006 0.000005 0.000005 0.000004 0.000004 0.000003 0.000003 0.000003 0.000002 0.000002 0.000002 0.000002 0.000001 0.000001 0.000001 0.000001 0.000001 0.000001 0.000001 0.000001 0.000001 0.000001 0.000000 0.000000 0.000000 0.000000 0.000000 0.000000 0.000000 0.000000 0.000000 0.000000 0.000000 0.000000 0.000000 0.000000 0.000000 0.000000 0.000000 0.000000 0.000000 0.000000 0.000000 0.000000 0.000000 0.000000 0.000000 0.000000 0.000000 0.000000 0.000000 0.000000 0.000000 0.000000 0.000000 0.000000 0.000000 0.000000 0.000000 0.000000 0.000000 0.000000 0.000000 0.000000 0.000000 0.000000 0.000000 0.000000 0.000000 0.000000 0.000000 0.000000 0.000000 0.000000 0.000000 0.000000 0.000000 0.000000 0.000000 0.000000 0.000000 0.000000 0.000000 0.000000 0.000000 0.000000 0.000000 0.000000 0.000000 0.000000 0.000000 0.000000 0.000000 0.000000 0.000000 0.000000 0.000000 0.000000 0.000000 0.000000 0.000000 0.000000 0.000000 0.000000 0.000000 0.000000 0.000000 0.000000 0.000000 0.000000 0.000000 0.000000 0.000000 0.000000 0.000000 0.000000 0.000000 0.000000 0.000000 0.000000 0.000000 0.000000 0.000000 0.000000 0.000000 0.000000 0.000000 0.000000 0.000000 0.000000 0.000000 0.000000 0.000000 0.000000 0.000000 0.000000 0.000000 0.000000 0.000000 0.000000 0.000000 0.000000 0.000000 0.000000 0.000000 0.000000 0.000000 0.000000 0.000000 0.000000 0.000000 0.000000 0.000000 0.000000 0.000000 0.000000 0.000000 0.000000 0.000000 0.000000 0.000000 0.000000 0.000000 0.000000 0.000000 0.000000 0.000000 0.000000 0.000000 0.000000
0.796409 0.752761 0.711262 0.671819 0.634344 0.598751 0.564959 0.532888 0.502462 0.473606 0.446251 0.420326 0.395768 0.372512 0.350498 0.329668 0.309964 0.291334 0.273725 0.257088 0.241374 0.226540 0.212540 0.199333 0.186879 0.175139 0.164076 0.153657 0.143846 0.134612 0.125925 0.117756 0.110075 0.102858 0.096079 0.089713 0.083738 0.078132 0.072874 0.067945 0.063326 0.058998 0.054946 0.051154 0.047605 0.044286 0.041183 0.038283 0.035574 0.033044 0.030683 0.028479 0.026424 0.024508 0.022723 0.021059 0.019510 0.018068 0.016727 0.015479 0.014319 0.013241 0.012239 0.011309 0.010445 0.009644 0.008901 0.008212 0.007574 0.006982 0.006434 0.005927 0.005458 0.005024 0.004623 0.004252 0.003910 0.003594 0.003302 0.003032 0.002784 0.002555 0.002343 0.002149 0.001970 0.001805 0.001653 0.001514 0.001385 0.001268 0.001159 0.001060 0.000968 0.000885 0.000808 0.000737 0.000673 0.000614 0.000560 0.000510 0.000465 0.000423 0.000385 0.000350 0.000319 0.000290 0.000264 0.000239 0.000217 0.000197 0.000179 0.000163 0.000147 0.000134 0.000121 0.000110 0.000099 0.000090 0.000081 0.000074 0.000066 0.000060 0.000054 0.000049 0.000044 0.000040 0.000036 0.000032 0.000029 0.000026 0.000024 0.000021 0.000019 0.000017 0.000016 0.000014 0.000013 0.000011 0.000010 0.000009 0.000008 0.000007 0.000007 0.000006 0.000005 0.000005 0.000004 0.000004 0.000003 0.000003 0.000003 0.000002 0.000002 0.000002 0.000002 0.000002 0.000001 0.000001 0.000001 0.000001 0.000001 0.000001 0.000001 0.000001 0.000001 0.000000 0.000000 0.000000 0.000000 0.000000 0.000000 0.000000 0.000000 0.000000 0.000000 0.000000 0.000000 0.000000 0.000000 0.000000 0.000000 0.000000 0.000000 0.000000 0.000000 0.000000 0.000000 0.000000 0.000000 0.000000 0.000000 0.000000 0.000000 0.000000 0.000000 0.000000 0.000000 0.000000 0.000000 0.000000 0.000000 0.000000 0.000000 0.000000 0.000000 0.000000 0.000000 0.000000 0.000000 0.000000 0.000000 0.000000 0.000000 0.000000 0.000000 0.000000 0.000000 0.000000 0.000000 0.000000 0.000000 0.000000 0.000000 0.000000 0.000000 0.000000 0.000000 0.000000 0.000000 0.000000 0.000000 0.000000 0.000000 0.000000 0.000000 0.000000 0.000000 0.000000 0.000000 0.000000 0.000000 0.000000 0.000000 0.000000 0.000000 0.000000 0.000000 0.000000 0.000000 0.000000 0.000000 0.000000 0.000000 0.000000 0.000000 0.000000 0.000000 0.000000 0.000000 0.000000 0.000000 0.000000 0.000000 0.000000 0.000000 0.000000 0.000000 0.000000 0.000000 0.000000 0.000000 0.000000 0.000000 0.000000 0.000000 0.000000 0.000000 0.000000 0.000000 0.000000 0.000000 0.000000 0.000000 0.000000 0.000000 0.000000 0.000000 0.000000 0.000000 0.000000 0.000000 0.000000 0.000000 0.000000 0.000000 0.000000 0.000000 0.000000 0.000000 0.000000 0.000000 0.000000 0.000000 0.000000 0.000000 0.000000 0.000000 0.000000 0.000000 0.000000 0.000000 0.000000 0.000000 0.000000
0.744261 0.703488 0.664719 0.627870 0.592858 0.559603 0.528030 0.498063 0.469632 0.442669 0.417106 0.392880 0.369930 0.348197 0.327623 0.308155 0.289740 0.272328 0.255870 0.240320 0.225634 0.211768 0.198683 0.186338 0.174697 0.163723 0.153383 0.143643 0.134472 0.125841 0.117720 0.110083 0.102904 0.096157 0.089820 0.083869 0.078283 0.073043 0.068127 0.063519 0.059201 0.055156 0.051368 0.047822 0.044505 0.041402 0.038501 0.035790 0.033257 0.030892 0.028685 0.026625 0.024704 0.022913 0.021243 0.019688 0.018240 0.016892 0.015638 0.014471 0.013387 0.012379 0.011442 0.010573 0.009765 0.009016 0.008322 0.007678 0.007081 0.006528 0.006016 0.005542 0.005103 0.004697 0.004322 0.003976 0.003655 0.003360 0.003087 0.002835 0.002602 0.002388 0.002191 0.002009 0.001842 0.001687 0.001546 0.001415 0.001295 0.001185 0.001084 0.000991 0.000905 0.000827 0.000755 0.000689 0.000629 0.000574 0.000523 0.000477 0.000434 0.000396 0.000360 0.000328 0.000298 0.000271 0.000246 0.000224 0.000203 0.000185 0.000168 0.000152 0.000138 0.000125 0.000113 0.000103 0.000093 0.000084 0.000076 0.000069 0.000062 0.000056 0.000051 0.000046 0.000041 0.000037 0.000034 0.000030 0.000027 0.000025 0.000022 0.000020 0.000018 0.000016 0.000015 0.000013 0.000012 0.000011 0.000009 0.000008 0.000008 0.000007 0.000006 0.000005 0.000005 0.000004 0.000004 0.000004 0.000003 0.000003 0.000003 0.000002 0.000002 0.000002 0.000002 0.000001 0.000001 0.000001 0.000001 0.000001 0.000001 0.000001 0.000001 0.000001 0.000001 0.000000 0.000000 0.000000 0.000000 0.000000 0.000000 0.000000 0.000000 0.000000 0.000000 0.000000 0.000000 0.000000 0.000000 0.000000 0.000000 0.000000 0.000000 0.000000 0.000000 0.000000 0.000000 0.000000 0.000000 0.000000 0.000000 0.000000 0.000000 0.000000 0.000000 0.000000 0.000000 0.000000 0.000000 0.000000 0.000000 0.000000 0.000000 0.000000 0.000000 0.000000 0.000000 0.000000 0.000000 0.000000 0.000000 0.000000 0.000000 0.000000 0.000000 0.000000 0.000000 0.000000 0.000000 0.000000 0.000000 0.000000 0.000000 0.000000 0.000000 0.000000 0.000000 0.000000 0.000000 0.000000 0.000000 0.000000 0.000000 0.000000 0.000000 0.000000 0.000000 0.000000 0.000000 0.000000 0.000000 0.000000 0.000000 0.000000 0.000000 0.000000 0.000000 0.000000 0.000000 0.000000 0.000000 0.000000 0.000000 0.000000 0.000000 0.000000 0.000000 0.000000 0.000000 0.000000 0.000000 0.000000 0.000000 0.000000 0.000000 0.000000 0.000000 0.000000 0.000000 0.000000 0.000000 0.000000 0.000000 0.000000 0.000000 0.000000 0.000000 0.000000 0.000000 0.000000 0.000000 0.000000 0.000000 0.000000 0.000000 0.000000 0.000000 0.000000 0.000000 0.000000 0.000000 0.000000 0.000000 0.000000 0.000000 0.000000 0.000000 0.000000 0.000000 0.000000 0.000000 0.000000 0.000000 0.000000 0.000000 0.000000 0.000000 0.000000 0.000000 0.000000 0.000000 0.000000 0.000000 0.000000
0.695926 0.657813 0.621572 0.587125 0.554394 0.523305 0.493786 0.465770 0.439188 0.413977 0.390076 0.367424 0.345965 0.325643 0.306405 0.288200 0.270980 0.254697 0.239307 0.224765 0.211030 0.198063 0.185826 0.174281 0.163394 0.153131 0.143460 0.134351 0.125774 0.117702 0.110107 0.102964 0.096249 0.089939 0.084011 0.078446 0.073221 0.068320 0.063723 0.059413 0.055374 0.051590 0.048047 0.044731 0.041628 0.038726 0.036012 0.033476 0.031108 0.028895 0.026831 0.024904 0.023107 0.021432 0.019870 0.018416 0.017061 0.015800 0.014627 0.013536 0.012521 0.011579 0.010703 0.009889 0.009134 0.008434 0.007784 0.007181 0.006623 0.006106 0.005627 0.005183 0.004773 0.004394 0.004043 0.003719 0.003419 0.003143 0.002887 0.002652 0.002434 0.002234 0.002049 0.001879 0.001723 0.001578 0.001446 0.001324 0.001212 0.001108 0.001014 0.000927 0.000847 0.000774 0.000706 0.000645 0.000588 0.000537 0.000489 0.000446 0.000406 0.000370 0.000337 0.000307 0.000279 0.000254 0.000230 0.000209 0.000190 0.000173 0.000157 0.000142 0.000129 0.000117 0.000106 0.000096 0.000087 0.000079 0.000071 0.000064 0.000058 0.000053 0.000047 0.000043 0.000039 0.000035 0.000031 0.000028 0.000026 0.000023 0.000021 0.000019 0.000017 0.000015 0.000014 0.000012 0.000011 0.000010 0.000009 0.000008 0.000007 0.000006 0.000006 0.000005 0.000005 0.000004 0.000004 0.000003 0.000003 0.000003 0.000002 0.000002 0.000002 0.000002 0.000001 0.000001 0.000001 0.000001 0.000001 0.000001 0.000001 0.000001 0.000001 0.000001 0.000000 0.000000 0.000000 0.000000 0.000000 0.000000 0.000000 0.000000 0.000000 0.000000 0.000000 0.000000 0.000000 0.000000 0.000000 0.000000 0.000000 0.000000 0.000000 0.000000 0.000000 0.000000 0.000000 0.000000 0.000000 0.000000 0.000000 0.000000 0.000000 0.000000 0.000000 0.000000 0.000000 0.000000 0.000000 0.000000 0.000000 0.000000 0.000000 0.000000 0.000000 0.000000 0.000000 0.000000 0.000000 0.000000 0.000000 0.000000 0.000000 0.000000 0.000000 0.000000 0.000000 0.000000 0.000000 0.000000 0.000000 0.000000 0.000000 0.000000 0.000000 0.000000 0.000000 0.000000 0.000000 0.000000 0.000000 0.000000 0.000000 0.000000 0.000000 0.000000 0.000000 0.000000 0.000000 0.000000 0.000000 0.000000 0.000000 0.000000 0.000000 0.000000 0.000000 0.000000 0.000000 0.000000 0.000000 0.000000 0.000000 0.000000 0.000000 0.000000 0.000000 0.000000 0.000000 0.000000 0.000000 0.000000 0.000000 0.000000 0.000000 0.000000 0.000000 0.000000 0.000000 0.000000 0.000000 0.000000 0.000000 0.000000 0.000000 0.000000 0.000000 0.000000 0.000000 0.000000 0.000000 0.000000 0.000000 0.000000 0.000000 0.000000 0.000000 0.000000 0.000000 0.000000 0.000000 0.000000 0.000000 0.000000 0.000000 0.000000 0.000000 0.000000 0.000000 0.000000 0.000000 0.000000 0.000000 0.000000 0.000000 0.000000 0.000000 0.000000 0.000000 0.000000 0.000000 0.000000 0.000000 0.000000
0.650886 0.615249 0.581363 0.549152 0.518544 0.489472 0.461868 0.435667 0.410808 0.387231 0.364877 0.343692 0.323621 0.304614 0.286621 0.269594 0.253487 0.238257 0.223861 0.210259 0.197412 0.185283 0.173836 0.163037 0.152853 0.143253 0.134206 0.125685 0.117662 0.110110 0.103006 0.096324 0.090042 0.084139 0.078594 0.073388 0.068500 0.063915 0.059614 0.055582 0.051804 0.048264 0.044950 0.041847 0.038944 0.036229 0.033691 0.031318 0.029102 0.027033 0.025101 0.023299 0.021618 0.020050 0.018589 0.017229 0.015961 0.014782 0.013684 0.012663 0.011714 0.010832 0.010013 0.009252 0.008546 0.007890 0.007282 0.006719 0.006196 0.005712 0.005264 0.004849 0.004466 0.004111 0.003782 0.003479 0.003199 0.002940 0.002701 0.002481 0.002277 0.002090 0.001917 0.001758 0.001612 0.001477 0.001353 0.001238 0.001133 0.001037 0.000948 0.000867 0.000792 0.000724 0.000661 0.000603 0.000550 0.000502 0.000458 0.000417 0.000380 0.000346 0.000315 0.000287 0.000261 0.000237 0.000216 0.000196 0.000178 0.000162 0.000147 0.000133 0.000121 0.000109 0.000099 0.000090 0.000081 0.000074 0.000067 0.000060 0.000054 0.000049 0.000044 0.000040 0.000036 0.000033 0.000029 0.000027 0.000024 0.000022 0.000019 0.000017 0.000016 0.000014 0.000013 0.000011 0.000010 0.000009 0.000008 0.000007 0.000007 0.000006 0.000005 0.000005 0.000004 0.000004 0.000003 0.000003 0.000003 0.000002 0.000002 0.000002 0.000002 0.000002 0.000001 0.000001 0.000001 0.000001 0.000001 0.000001 0.000001 0.000001 0.000001 0.000000 0.000000 0.000000 0.000000 0.000000 0.000000 0.000000 0.000000 0.000000 0.000000 0.000000 0.000000 0.000000 0.000000 0.000000 0.000000 0.000000 0.000000 0.000000 0.000000 0.000000 0.000000 0.000000 0.000000 0.000000 0.000000 0.000000 0.000000 0.000000 0.000000 0.000000 0.000000 0.000000 0.000000 0.000000 0.000000 0.000000 0.000000 0.000000 0.000000 0.000000 0.000000 0.000000 0.000000 0.000000 0.000000 0.000000 0.000000 0.000000 0.000000 0.000000 0.000000 0.000000 0.000000 0.000000 0.000000 0.000000 0.000000 0.000000 0.000000 0.000000 0.000000 0.000000 0.000000 0.000000 0.000000 0.000000 0.000000 0.000000 0.000000 0.000000 0.000000 0.000000 0.000000 0.000000 0.000000 0.000000 0.000000 0.000000 0.000000 0.000000 0.000000 0.000000 0.000000 0.000000 0.000000 0.000000 0.000000 0.000000 0.000000 0.000000 0.000000 0.000000 0.000000 0.000000 0.000000 0.000000 0.000000 0.000000 0.000000 0.000000 0.000000 0.000000 0.000000 0.000000 0.000000 0.000000 0.000000 0.000000 0.000000 0.000000 0.000000 0.000000 0.000000 0.000000 0.000000 0.000000 0.000000 0.000000 0.000000 0.000000 0.000000 0.000000 0.000000 0.000000 0.000000 0.000000 0.000000 0.000000 0.000000 0.000000 0.000000 0.000000 0.000000 0.000000 0.000000 0.000000 0.000000 0.000000 0.000000 0.000000 0.000000 0.000000 0.000000 0.000000 0.000000 0.000000 0.000000 0.000000 0.000000 0.000000
0.608741 0.575420 0.543734 0.513614 0.484993 0.457807 0.431993 0.407491 0.384244 0.362194 0.341289 0.321476 0.302705 0.284928 0.268100 0.252175 0.237110 0.222865 0.209401 0.196678 0.184662 0.173317 0.162610 0.152509 0.142983 0.134003 0.125541 0.117571 0.110066 0.103002 0.096356 0.090106 0.084230 0.078708 0.073521 0.068651 0.064079 0.059790 0.055767 0.051995 0.048461 0.045150 0.042049 0.039147 0.036431 0.033891 0.031517 0.029298 0.027224 0.025289 0.023481 0.021795 0.020223 0.018756 0.017390 0.016117 0.014932 0.013828 0.012801 0.011846 0.010959 0.010133 0.009367 0.008655 0.007994 0.007381 0.006812 0.006285 0.005796 0.005344 0.004925 0.004536 0.004177 0.003845 0.003538 0.003255 0.002992 0.002750 0.002527 0.002321 0.002130 0.001955 0.001794 0.001645 0.001508 0.001381 0.001265 0.001158 0.001060 0.000970 0.000887 0.000811 0.000741 0.000677 0.000618 0.000564 0.000515 0.000470 0.000428 0.000390 0.000356 0.000324 0.000295 0.000268 0.000244 0.000222 0.000202 0.000183 0.000166 0.000151 0.000137 0.000124 0.000113 0.000102 0.000093 0.000084 0.000076 0.000069 0.000062 0.000056 0.000051 0.000046 0.000042 0.000038 0.000034 0.000031 0.000028 0.000025 0.000022 0.000020 0.000018 0.000016 0.000015 0.000013 0.000012 0.000011 0.000010 0.000009 0.000008 0.000007 0.000006 0.000006 0.000005 0.000004 0.000004 0.000004 0.000003 0.000003 0.000003 0.000002 0.000002 0.000002 0.000002 0.000001 0.000001 0.000001 0.000001 0.000001 0.000001 0.000001 0.000001 0.000001 0.000001 0.000000 0.000000 0.000000 0.000000 0.000000 0.000000 0.000000 0.000000 0.000000 0.000000 0.000000 0.000000 0.000000 0.000000 0.000000 0.000000 0.000000 0.000000 0.000000 0.000000 0.000000 0.000000 0.000000 0.000000 0.000000 0.000000 0.000000 0.000000 0.000000 0.000000 0.000000 0.000000 0.000000 0.000000 0.000000 0.000000 0.000000 0.000000 0.000000 0.000000 0.000000 0.000000 0.000000 0.000000 0.000000 0.000000 0.000000 0.000000 0.000000 0.000000 0.000000 0.000000 0.000000 0.000000 0.000000 0.000000 0.000000 0.000000 0.000000 0.000000 0.000000 0.000000 0.000000 0.000000 0.000000 0.000000 0.000000 0.000000 0.000000 0.000000 0.000000 0.000000 0.000000 0.000000 0.000000 0.000000 0.000000 0.000000 0.000000 0.000000 0.000000 0.000000 0.000000 0.000000 0.000000 0.000000 0.000000 0.000000 0.000000 0.000000 0.000000 0.000000 0.000000 0.000000 0.000000 0.000000 0.000000 0.000000 0.000000 0.000000 0.000000 0.000000 0.000000 0.000000 0.000000 0.000000 0.000000 0.000000 0.000000 0.000000 0.000000 0.000000 0.000000 0.000000 0.000000 0.000000 0.000000 0.000000 0.000000 0.000000 0.000000 0.000000 0.000000 0.000000 0.000000 0.000000 0.000000 0.000000 0.000000 0.000000 0.000000 0.000000 0.000000 0.000000 0.000000 0.000000 0.000000 0.000000 0.000000 0.000000 0.000000 0.000000 0.000000 0.000000 0.000000 0.000000 0.000000 0.000000 0.000000 0.000000 0.000000
0.569172 0.538023 0.508403 0.480245 0.453488 0.428073 0.403939 0.381032 0.359297 0.338681 0.319135 0.300611 0.283060 0.266439 0.250704 0.235813 0.221727 0.208408 0.195818 0.183921 0.172685 0.162077 0.152065 0.142619 0.133711 0.125314 0.117401 0.109948 0.102930 0.096324 0.090110 0.084265 0.078770 0.073606 0.068756 0.064201 0.059926 0.055914 0.052152 0.048625 0.045320 0.042223 0.039324 0.036610 0.034070 0.031695 0.029474 0.027399 0.025460 0.023650 0.021960 0.020383 0.018912 0.017541 0.016263 0.015073 0.013964 0.012932 0.011972 0.011079 0.010248 0.009477 0.008760 0.008094 0.007476 0.006903 0.006371 0.005878 0.005421 0.004997 0.004605 0.004243 0.003907 0.003596 0.003309 0.003044 0.002798 0.002572 0.002363 0.002170 0.001992 0.001828 0.001677 0.001538 0.001410 0.001292 0.001183 0.001083 0.000992 0.000907 0.000830 0.000759 0.000693 0.000633 0.000578 0.000528 0.000482 0.000439 0.000400 0.000365 0.000333 0.000303 0.000276 0.000251 0.000228 0.000208 0.000189 0.000171 0.000156 0.000141 0.000128 0.000116 0.000106 0.000096 0.000087 0.000079 0.000071 0.000064 0.000058 0.000053 0.000048 0.000043 0.000039 0.000035 0.000032 0.000029 0.000026 0.000023 0.000021 0.000019 0.000017 0.000015 0.000014 0.000012 0.000011 0.000010 0.000009 0.000008 0.000007 0.000007 0.000006 0.000005 0.000005 0.000004 0.000004 0.000003 0.000003 0.000003 0.000002 0.000002 0.000002 0.000002 0.000002 0.000001 0.000001 0.000001 0.000001 0.000001 0.000001 0.000001 0.000001 0.000001 0.000000 0.000000 0.000000 0.000000 0.000000 0.000000 0.000000 0.000000 0.000000 0.000000 0.000000 0.000000 0.000000 0.000000 0.000000 0.000000 0.000000 0.000000 0.000000 0.000000 0.000000 0.000000 0.000000 0.000000 0.000000 0.000000 0.000000 0.000000 0.000000 0.000000 0.000000 0.000000 0.000000 0.000000 0.000000 0.000000 0.000000 0.000000 0.000000 0.000000 0.000000 0.000000 0.000000 0.000000 0.000000 0.000000 0.000000 0.000000 0.000000 0.000000 0.000000 0.000000 0.000000 0.000000 0.000000 0.000000 0.000000 0.000000 0.000000 0.000000 0.000000 0.000000 0.000000 0.000000 0.000000 0.000000 0.000000 0.000000 0.000000 0.000000 0.000000 0.000000 0.000000 0.000000 0.000000 0.000000 0.000000 0.000000 0.000000 0.000000 0.000000 0.000000 0.000000 0.000000 0.000000 0.000000 0.000000 0.000000 0.000000 0.000000 0.000000 0.000000 0.000000 0.000000 0.000000 0.000000 0.000000 0.000000 0.000000 0.000000 0.000000 0.000000 0.000000 0.000000 0.000000 0.000000 0.000000 0.000000 0.000000 0.000000 0.000000 0.000000 0.000000 0.000000 0.000000 0.000000 0.000000 0.000000 0.000000 0.000000 0.000000 0.000000 0.000000 0.000000 0.000000 0.000000 0.000000 0.000000 0.000000 0.000000 0.000000 0.000000 0.000000 0.000000 0.000000 0.000000 0.000000 0.000000 0.000000 0.000000 0.000000 0.000000 0.000000 0.000000 0.000000 0.000000 0.000000 0.000000 0.000000 0.000000 0.000000 0.000000
0.531923 0.502818 0.475140 0.448829 0.423827 0.400077 0.377525 0.356118 0.335807 0.316541 0.298275 0.280963 0.264561 0.249027 0.234322 0.220405 0.207241 0.194792 0.183026 0.171907 0.161406 0.151491 0.142133 0.133305 0.124979 0.117131 0.109735 0.102768 0.096209 0.090035 0.084226 0.078763 0.073627 0.068801 0.064267 0.060010 0.056014 0.052264 0.048748 0.045451 0.042361 0.039467 0.036757 0.034220 0.031846 0.029626 0.027550 0.025610 0.023798 0.022106 0.020526 0.019053 0.017678 0.016396 0.015202 0.014089 0.013053 0.012088 0.011190 0.010356 0.009580 0.008858 0.008188 0.007566 0.006988 0.006452 0.005955 0.005494 0.005067 0.004671 0.004305 0.003966 0.003652 0.003361 0.003093 0.002845 0.002616 0.002404 0.002209 0.002029 0.001862 0.001709 0.001568 0.001438 0.001318 0.001208 0.001106 0.001013 0.000927 0.000848 0.000776 0.000709 0.000648 0.000592 0.000540 0.000493 0.000450 0.000411 0.000374 0.000341 0.000311 0.000283 0.000258 0.000234 0.000213 0.000194 0.000176 0.000160 0.000145 0.000132 0.000120 0.000109 0.000099 0.000089 0.000081 0.000073 0.000066 0.000060 0.000054 0.000049 0.000044 0.000040 0.000036 0.000033 0.000030 0.000027 0.000024 0.000022 0.000020 0.000018 0.000016 0.000014 0.000013 0.000012 0.000010 0.000009 0.000008 0.000008 0.000007 0.000006 0.000005 0.000005 0.000004 0.000004 0.000004 0.000003 0.000003 0.000003 0.000002 0.000002 0.000002 0.000002 0.000001 0.000001 0.000001 0.000001 0.000001 0.000001 0.000001 0.000001 0.000001 0.000001 0.000000 0.000000 0.000000 0.000000 0.000000 0.000000 0.000000 0.000000 0.000000 0.000000 0.000000 0.000000 0.000000 0.000000 0.000000 0.000000 0.000000 0.000000 0.000000 0.000000 0.000000 0.000000 0.000000 0.000000 0.000000 0.000000 0.000000 0.000000 0.000000 0.000000 0.000000 0.000000 0.000000 0.000000 0.000000 0.000000 0.000000 0.000000 0.000000 0.000000 0.000000 0.000000 0.000000 0.000000 0.000000 0.000000 0.000000 0.000000 0.000000 0.000000 0.000000 0.000000 0.000000 0.000000 0.000000 0.000000 0.000000 0.000000 0.000000 0.000000 0.000000 0.000000 0.000000 0.000000 0.000000 0.000000 0.000000 0.000000 0.000000 0.000000 0.000000 0.000000 0.000000 0.000000 0.000000 0.000000 0.000000 0.000000 0.000000 0.000000 0.000000 0.000000 0.000000 0.000000 0.000000 0.000000 0.000000 0.000000 0.000000 0.000000 0.000000 0.000000 0.000000 0.000000 0.000000 0.000000 0.000000 0.000000 0.000000 0.000000 0.000000 0.000000 0.000000 0.000000 0.000000 0.000000 0.000000 0.000000 0.000000 0.000000 0.000000 0.000000 0.000000 0.000000 0.000000 0.000000 0.000000 0.000000 0.000000 0.000000 0.000000 0.000000 0.000000 0.000000 0.000000 0.000000 0.000000 0.000000 0.000000 0.000000 0.000000 0.000000 0.000000 0.000000 0.000000 0.000000 0.000000 0.000000 0.000000 0.000000 0.000000 0.000000 0.000000 0.000000 0.000000 0.000000 0.000000 0.000000 0.000000 0.000000 0.000000 0.000000
0.496781 0.469604 0.443758 0.419189 0.395841 0.373662 0.352601 0.332610 0.313641 0.295649 0.278590 0.262422 0.247104 0.232597 0.218862 0.205865 0.193570 0.181943 0.170953 0.160569 0.150760 0.141500 0.132760 0.124514 0.116738 0.109407 0.102499 0.095992 0.089865 0.084099 0.078673 0.073570 0.068773 0.064265 0.060030 0.056054 0.052321 0.048819 0.045534 0.042455 0.039569 0.036865 0.034334 0.031964 0.029747 0.027673 0.025734 0.023922 0.022230 0.020649 0.019173 0.017797 0.016513 0.015315 0.014200 0.013160 0.012192 0.011291 0.010453 0.009673 0.008948 0.008274 0.007648 0.007067 0.006528 0.006027 0.005563 0.005132 0.004733 0.004363 0.004021 0.003704 0.003411 0.003140 0.002889 0.002657 0.002443 0.002246 0.002063 0.001895 0.001740 0.001596 0.001465 0.001343 0.001231 0.001128 0.001033 0.000946 0.000866 0.000792 0.000724 0.000662 0.000605 0.000553 0.000505 0.000461 0.000420 0.000384 0.000350 0.000319 0.000290 0.000264 0.000241 0.000219 0.000199 0.000181 0.000165 0.000150 0.000136 0.000123 0.000112 0.000102 0.000092 0.000084 0.000076 0.000069 0.000062 0.000056 0.000051 0.000046 0.000042 0.000038 0.000034 0.000031 0.000028 0.000025 0.000023 0.000020 0.000018 0.000016 0.000015 0.000013 0.000012 0.000011 0.000010 0.000009 0.000008 0.000007 0.000006 0.000006 0.000005 0.000005 0.000004 0.000004 0.000003 0.000003 0.000003 0.000002 0.000002 0.000002 0.000002 0.000002 0.000001 0.000001 0.000001 0.000001 0.000001 0.000001 0.000001 0.000001 0.000001 0.000000 0.000000 0.000000 0.000000 0.000000 0.000000 0.000000 0.000000 0.000000 0.000000 0.000000 0.000000 0.000000 0.000000 0.000000 0.000000 0.000000 0.000000 0.000000 0.000000 0.000000 0.000000 0.000000 0.000000 0.000000 0.000000 0.000000 0.000000 0.000000 0.000000 0.000000 0.000000 0.000000 0.000000 0.000000 0.000000 0.000000 0.000000 0.000000 0.000000 0.000000 0.000000 0.000000 0.000000 0.000000 0.000000 0.000000 0.000000 0.000000 0.000000 0.000000 0.000000 0.000000 0.000000 0.000000 0.000000 0.000000 0.000000 0.000000 0.000000 0.000000 0.000000 0.000000 0.000000 0.000000 0.000000 0.000000 0.000000 0.000000 0.000000 0.000000 0.000000 0.000000 0.000000 0.000000 0.000000 0.000000 0.000000 0.000000 0.000000 0.000000 0.000000 0.000000 0.000000 0.000000 0.000000 0.000000 0.000000 0.000000 0.000000 0.000000 0.000000 0.000000 0.000000 0.000000 0.000000 0.000000 0.000000 0.000000 0.000000 0.000000 0.000000 0.000000 0.000000 0.000000 0.000000 0.000000 0.000000 0.000000 0.000000 0.000000 0.000000 0.000000 0.000000 0.000000 0.000000 0.000000 0.000000 0.000000 0.000000 0.000000 0.000000 0.000000 0.000000 0.000000 0.000000 0.000000 0.000000 0.000000 0.000000 0.000000 0.000000 0.000000 0.000000 0.000000 0.000000 0.000000 0.000000 0.000000 0.000000 0.000000 0.000000 0.000000 0.000000 0.000000 0.000000 0.000000 0.000000 0.000000 0.000000 0.000000 0.000000 0.000000
0.463571 0.438214 0.414099 0.391174 0.369389 0.348695 0.329044 0.310390 0.292690 0.275902 0.259984 0.244897 0.230602 0.217065 0.204249 0.192120 0.180646 0.169796 0.159541 0.149850 0.140697 0.132055 0.123898 0.116203 0.108946 0.102105 0.095659 0.089586 0.083868 0.078487 0.073423 0.068661 0.064184 0.059977 0.056025 0.052313 0.048830 0.045562 0.042496 0.039622 0.036929 0.034406 0.032043 0.029832 0.027762 0.025827 0.024017 0.022326 0.020747 0.019271 0.017894 0.016609 0.015411 0.014294 0.013252 0.012282 0.011379 0.010538 0.009756 0.009028 0.008351 0.007722 0.007138 0.006596 0.006092 0.005625 0.005192 0.004790 0.004417 0.004072 0.003753 0.003457 0.003184 0.002930 0.002696 0.002480 0.002280 0.002096 0.001926 0.001769 0.001624 0.001490 0.001367 0.001253 0.001149 0.001053 0.000964 0.000883 0.000808 0.000739 0.000676 0.000618 0.000565 0.000516 0.000471 0.000430 0.000392 0.000358 0.000326 0.000297 0.000271 0.000247 0.000225 0.000204 0.000186 0.000169 0.000154 0.000140 0.000127 0.000115 0.000105 0.000095 0.000086 0.000078 0.000071 0.000064 0.000058 0.000052 0.000047 0.000043 0.000039 0.000035 0.000032 0.000029 0.000026 0.000023 0.000021 0.000019 0.000017 0.000015 0.000014 0.000012 0.000011 0.000010 0.000009 0.000008 0.000007 0.000007 0.000006 0.000005 0.000005 0.000004 0.000004 0.000003 0.000003 0.000003 0.000002 0.000002 0.000002 0.000002 0.000002 0.000001 0.000001 0.000001 0.000001 0.000001 0.000001 0.000001 0.000001 0.000001 0.000000 0.000000 0.000000 0.000000 0.000000 0.000000 0.000000 0.000000 0.000000 0.000000 0.000000 0.000000 0.000000 0.000000 0.000000 0.000000 0.000000 0.000000 0.000000 0.000000 0.000000 0.000000 0.000000 0.000000 0.000000 0.000000 0.000000 0.000000 0.000000 0.000000 0.000000 0.000000 0.000000 0.000000 0.000000 0.000000 0.000000 0.000000 0.000000 0.000000 0.000000 0.000000 0.000000 0.000000 0.000000 0.000000 0.000000 0.000000 0.000000 0.000000 0.000000 0.000000 0.000000 0.000000 0.000000 0.000000 0.000000 0.000000 0.000000 0.000000 0.000000 0.000000 0.000000 0.000000 0.000000 0.000000 0.000000 0.000000 0.000000 0.000000 0.000000 0.000000 0.000000 0.000000 0.000000 0.000000 0.000000 0.000000 0.000000 0.000000 0.000000 0.000000 0.000000 0.000000 0.000000 0.000000 0.000000 0.000000 0.000000 0.000000 0.000000 0.000000 0.000000 0.000000 0.000000 0.000000 0.000000 0.000000 0.000000 0.000000 0.000000 0.000000 0.000000 0.000000 0.000000 0.000000 0.000000 0.000000 0.000000 0.000000 0.000000 0.000000 0.000000 0.000000 0.000000 0.000000 0.000000 0.000000 0.000000 0.000000 0.000000 0.000000 0.000000 0.000000 0.000000 0.000000 0.000000 0.000000 0.000000 0.000000 0.000000 0.000000 0.000000 0.000000 0.000000 0.000000 0.000000 0.000000 0.000000 0.000000 0.000000 0.000000 0.000000 0.000000 0.000000 0.000000 0.000000 0.000000 0.000000 0.000000 0.000000 0.000000 0.000000 0.000000
0.432142 0.408507 0.386030 0.364662 0.344355 0.325065 0.306748 0.289360 0.272860 0.257211 0.242372 0.228308 0.214983 0.202363 0.190416 0.179109 0.168413 0.158298 0.148738 0.139703 0.131170 0.123114 0.115510 0.108336 0.101571 0.095193 0.089183 0.083522 0.078191 0.073174 0.068453 0.064013 0.059840 0.055917 0.052233 0.048773 0.045525 0.042478 0.039620 0.036941 0.034430 0.032077 0.029875 0.027813 0.025883 0.024079 0.022392 0.020815 0.019343 0.017967 0.016683 0.015485 0.014368 0.013326 0.012356 0.011451 0.010609 0.009825 0.009095 0.008417 0.007786 0.007200 0.006655 0.006149 0.005680 0.005244 0.004840 0.004466 0.004118 0.003797 0.003499 0.003223 0.002968 0.002732 0.002514 0.002312 0.002126 0.001954 0.001795 0.001649 0.001514 0.001389 0.001274 0.001169 0.001071 0.000982 0.000899 0.000823 0.000753 0.000689 0.000630 0.000576 0.000527 0.000481 0.000439 0.000401 0.000366 0.000334 0.000304 0.000277 0.000253 0.000230 0.000209 0.000191 0.000173 0.000158 0.000143 0.000130 0.000118 0.000107 0.000097 0.000088 0.000080 0.000073 0.000066 0.000060 0.000054 0.000049 0.000044 0.000040 0.000036 0.000033 0.000030 0.000027 0.000024 0.000022 0.000020 0.000018 0.000016 0.000014 0.000013 0.000012 0.000010 0.000009 0.000008 0.000008 0.000007 0.000006 0.000006 0.000005 0.000004 0.000004 0.000004 0.000003 0.000003 0.000003 0.000002 0.000002 0.000002 0.000002 0.000001 0.000001 0.000001 0.000001 0.000001 0.000001 0.000001 0.000001 0.000001 0.000001 0.000000 0.000000 0.000000 0.000000 0.000000 0.000000 0.000000 0.000000 0.000000 0.000000 0.000000 0.000000 0.000000 0.000000 0.000000 0.000000 0.000000 0.000000 0.000000 0.000000 0.000000 0.000000 0.000000 0.000000 0.000000 0.000000 0.000000 0.000000 0.000000 0.000000 0.000000 0.000000 0.000000 0.000000 0.000000 0.000000 0.000000 0.000000 0.000000 0.000000 0.000000 0.000000 0.000000 0.000000 0.000000 0.000000 0.000000 0.000000 0.000000 0.000000 0.000000 0.000000 0.000000 0.000000 0.000000 0.000000 0.000000 0.000000 0.000000 0.000000 0.000000 0.000000 0.000000 0.000000 0.000000 0.000000 0.000000 0.000000 0.000000 0.000000 0.000000 0.000000 0.000000 0.000000 0.000000 0.000000 0.000000 0.000000 0.000000 0.000000 0.000000 0.000000 0.000000 0.000000 0.000000 0.000000 0.000000 0.000000 0.000000 0.000000 0.000000 0.000000 0.000000 0.000000 0.000000 0.000000 0.000000 0.000000 0.000000 0.000000 0.000000 0.000000 0.000000 0.000000 0.000000 0.000000 0.000000 0.000000 0.000000 0.000000 0.000000 0.000000 0.000000 0.000000 0.000000 0.000000 0.000000 0.000000 0.000000 0.000000 0.000000 0.000000 0.000000 0.000000 0.000000 0.000000 0.000000 0.000000 0.000000 0.000000 0.000000 0.000000 0.000000 0.000000 0.000000 0.000000 0.000000 0.000000 0.000000 0.000000 0.000000 0.000000 0.000000 0.000000 0.000000 0.000000 0.000000 0.000000 0.000000 0.000000 0.000000 0.000000 0.000000 0.000000
0.402366 0.380363 0.359437 0.339543 0.320637 0.302677 0.285623 0.269433 0.254072 0.239501 0.225685 0.212590 0.200183 0.188433 0.177308 0.166780 0.156821 0.147403 0.138501 0.130089 0.122143 0.114641 0.107561 0.100881 0.094581 0.088643 0.083046 0.077775 0.072811 0.068139 0.063743 0.059609 0.055722 0.052070 0.048639 0.045417 0.042393 0.039556 0.036894 0.034399 0.032061 0.029871 0.027819 0.025899 0.024103 0.022423 0.020852 0.019384 0.018012 0.016731 0.015536 0.014420 0.013380 0.012410 0.011506 0.010663 0.009879 0.009149 0.008470 0.007838 0.007250 0.006705 0.006197 0.005726 0.005289 0.004884 0.004507 0.004158 0.003835 0.003536 0.003258 0.003001 0.002764 0.002544 0.002341 0.002153 0.001980 0.001820 0.001672 0.001535 0.001410 0.001294 0.001187 0.001088 0.000997 0.000914 0.000837 0.000767 0.000702 0.000642 0.000587 0.000537 0.000490 0.000448 0.000409 0.000373 0.000341 0.000311 0.000283 0.000258 0.000235 0.000214 0.000195 0.000177 0.000161 0.000147 0.000133 0.000121 0.000110 0.000100 0.000091 0.000082 0.000075 0.000068 0.000061 0.000056 0.000050 0.000046 0.000041 0.000037 0.000034 0.000030 0.000027 0.000025 0.000022 0.000020 0.000018 0.000016 0.000015 0.000013 0.000012 0.000011 0.000010 0.000009 0.000008 0.000007 0.000006 0.000006 0.000005 0.000005 0.000004 0.000004 0.000003 0.000003 0.000003 0.000002 0.000002 0.000002 0.000002 0.000002 0.000001 0.000001 0.000001 0.000001 0.000001 0.000001 0.000001 0.000001 0.000001 0.000000 0.000000 0.000000 0.000000 0.000000 0.000000 0.000000 0.000000 0.000000 0.000000 0.000000 0.000000 0.000000 0.000000 0.000000 0.000000 0.000000 0.000000 0.000000 0.000000 0.000000 0.000000 0.000000 0.000000 0.000000 0.000000 0.000000 0.000000 0.000000 0.000000 0.000000 0.000000 0.000000 0.000000 0.000000 0.000000 0.000000 0.000000 0.000000 0.000000 0.000000 0.000000 0.000000 0.000000 0.000000 0.000000 0.000000 0.000000 0.000000 0.000000 0.000000 0.000000 0.000000 0.000000 0.000000 0.000000 0.000000 0.000000 0.000000 0.000000 0.000000 0.000000 0.000000 0.000000 0.000000 0.000000 0.000000 0.000000 0.000000 0.000000 0.000000 0.000000 0.000000 0.000000 0.000000 0.000000 0.000000 0.000000 0.000000 0.000000 0.000000 0.000000 0.000000 0.000000 0.000000 0.000000 0.000000 0.000000 0.000000 0.000000 0.000000 0.000000 0.000000 0.000000 0.000000 0.000000 0.000000 0.000000 0.000000 0.000000 0.000000 0.000000 0.000000 0.000000 0.000000 0.000000 0.000000 0.000000 0.000000 0.000000 0.000000 0.000000 0.000000 0.000000 0.000000 0.000000 0.000000 0.000000 0.000000 0.000000 0.000000 0.000000 0.000000 0.000000 0.000000 0.000000 0.000000 0.000000 0.000000 0.000000 0.000000 0.000000 0.000000 0.000000 0.000000 0.000000 0.000000 0.000000 0.000000 0.000000 0.000000 0.000000 0.000000 0.000000 0.000000 0.000000 0.000000 0.000000 0.000000 0.000000 0.000000 0.000000 0.000000 0.000000 0.000000
0.374136 0.353678 0.334222 0.315725 0.298147 0.281449 0.265592 0.250539 0.236256 0.222707 0.209861 0.197685 0.186148 0.175222 0.164878 0.155089 0.145828 0.137071 0.128793 0.120971 0.113582 0.106606 0.100023 0.093811 0.087953 0.082430 0.077226 0.072324 0.067709 0.063364 0.059277 0.055432 0.051818 0.048421 0.045231 0.042235 0.039423 0.036784 0.034309 0.031989 0.029815 0.027778 0.025870 0.024085 0.022414 0.020852 0.019391 0.018025 0.016750 0.015559 0.014447 0.013410 0.012442 0.011540 0.010700 0.009916 0.009187 0.008508 0.007876 0.007289 0.006743 0.006235 0.005763 0.005325 0.004919 0.004541 0.004191 0.003867 0.003566 0.003288 0.003030 0.002791 0.002570 0.002366 0.002177 0.002002 0.001841 0.001692 0.001555 0.001428 0.001311 0.001203 0.001104 0.001012 0.000928 0.000850 0.000779 0.000713 0.000652 0.000597 0.000546 0.000499 0.000456 0.000417 0.000380 0.000347 0.000317 0.000289 0.000263 0.000240 0.000219 0.000199 0.000181 0.000165 0.000150 0.000137 0.000124 0.000113 0.000102 0.000093 0.000084 0.000077 0.000069 0.000063 0.000057 0.000052 0.000047 0.000042 0.000038 0.000035 0.000031 0.000028 0.000026 0.000023 0.000021 0.000019 0.000017 0.000015 0.000014 0.000012 0.000011 0.000010 0.000009 0.000008 0.000007 0.000007 0.000006 0.000005 0.000005 0.000004 0.000004 0.000003 0.000003 0.000003 0.000002 0.000002 0.000002 0.000002 0.000002 0.000001 0.000001 0.000001 0.000001 0.000001 0.000001 0.000001 0.000001 0.000001 0.000001 0.000000 0.000000 0.000000 0.000000 0.000000 0.000000 0.000000 0.000000 0.000000 0.000000 0.000000 0.000000 0.000000 0.000000 0.000000 0.000000 0.000000 0.000000 0.000000 0.000000 0.000000 0.000000 0.000000 0.000000 0.000000 0.000000 0.000000 0.000000 0.000000 0.000000 0.000000 0.000000 0.000000 0.000000 0.000000 0.000000 0.000000 0.000000 0.000000 0.000000 0.000000 0.000000 0.000000 0.000000 0.000000 0.000000 0.000000 0.000000 0.000000 0.000000 0.000000 0.000000 0.000000 0.000000 0.000000 0.000000 0.000000 0.000000 0.000000 0.000000 0.000000 0.000000 0.000000 0.000000 0.000000 0.000000 0.000000 0.000000 0.000000 0.000000 0.000000 0.000000 0.000000 0.000000 0.000000 0.000000 0.000000 0.000000 0.000000 0.000000 0.000000 0.000000 0.000000 0.000000 0.000000 0.000000 0.000000 0.000000 0.000000 0.000000 0.000000 0.000000 0.000000 0.000000 0.000000 0.000000 0.000000 0.000000 0.000000 0.000000 0.000000 0.000000 0.000000 0.000000 0.000000 0.000000 0.000000 0.000000 0.000000 0.000000 0.000000 0.000000 0.000000 0.000000 0.000000 0.000000 0.000000 0.000000 0.000000 0.000000 0.000000 0.000000 0.000000 0.000000 0.000000 0.000000 0.000000 0.000000 0.000000 0.000000 0.000000 0.000000 0.000000 0.000000 0.000000 0.000000 0.000000 0.000000 0.000000 0.000000 0.000000 0.000000 0.000000 0.000000 0.000000 0.000000 0.000000 0.000000 0.000000 0.000000 0.000000 0.000000 0.000000 0.000000 0.000000
0.347354 0.328363 0.310301 0.293130 0.276811 0.261309 0.246587 0.232613 0.219352 0.206774 0.194847 0.183543 0.172832 0.162688 0.153085 0.143996 0.135398 0.127267 0.119582 0.112319 0.105459 0.098983 0.092870 0.087102 0.081663 0.076536 0.071704 0.067153 0.062867 0.058833 0.055038 0.051469 0.048113 0.044959 0.041997 0.039215 0.036604 0.034154 0.031856 0.029702 0.027683 0.025792 0.024021 0.022363 0.020812 0.019361 0.018004 0.016737 0.015553 0.014447 0.013414 0.012451 0.011553 0.010715 0.009935 0.009207 0.008530 0.007900 0.007313 0.006768 0.006261 0.005789 0.005351 0.004945 0.004567 0.004217 0.003892 0.003591 0.003311 0.003053 0.002813 0.002592 0.002387 0.002197 0.002021 0.001859 0.001710 0.001571 0.001444 0.001326 0.001217 0.001117 0.001025 0.000940 0.000861 0.000789 0.000723 0.000662 0.000606 0.000554 0.000507 0.000463 0.000423 0.000387 0.000353 0.000322 0.000294 0.000268 0.000245 0.000223 0.000203 0.000185 0.000168 0.000153 0.000139 0.000127 0.000115 0.000105 0.000095 0.000086 0.000078 0.000071 0.000064 0.000058 0.000053 0.000048 0.000043 0.000039 0.000036 0.000032 0.000029 0.000026 0.000024 0.000021 0.000019 0.000017 0.000016 0.000014 0.000013 0.000012 0.000010 0.000009 0.000008 0.000008 0.000007 0.000006 0.000005 0.000005 0.000004 0.000004 0.000004 0.000003 0.000003 0.000003 0.000002 0.000002 0.000002 0.000002 0.000001 0.000001 0.000001 0.000001 0.000001 0.000001 0.000001 0.000001 0.000001 0.000001 0.000000 0.000000 0.000000 0.000000 0.000000 0.000000 0.000000 0.000000 0.000000 0.000000 0.000000 0.000000 0.000000 0.000000 0.000000 0.000000 0.000000 0.000000 0.000000 0.000000 0.000000 0.000000 0.000000 0.000000 0.000000 0.000000 0.000000 0.000000 0.000000 0.000000 0.000000 0.000000 0.000000 0.000000 0.000000 0.000000 0.000000 0.000000 0.000000 0.000000 0.000000 0.000000 0.000000 0.000000 0.000000 0.000000 0.000000 0.000000 0.000000 0.000000 0.000000 0.000000 0.000000 0.000000 0.000000 0.000000 0.000000 0.000000 0.000000 0.000000 0.000000 0.000000 0.000000 0.000000 0.000000 0.000000 0.000000 0.000000 0.000000 0.000000 0.000000 0.000000 0.000000 0.000000 0.000000 0.000000 0.000000 0.000000 0.000000 0.000000 0.000000 0.000000 0.000000 0.000000 0.000000 0.000000 0.000000 0.000000 0.000000 0.000000 0.000000 0.000000 0.000000 0.000000 0.000000 0.000000 0.000000 0.000000 0.000000 0.000000 0.000000 0.000000 0.000000 0.000000 0.000000 0.000000 0.000000 0.000000 0.000000 0.000000 0.000000 0.000000 0.000000 0.000000 0.000000 0.000000 0.000000 0.000000 0.000000 0.000000 0.000000 0.000000 0.000000 0.000000 0.000000 0.000000 0.000000 0.000000 0.000000 0.000000 0.000000 0.000000 0.000000 0.000000 0.000000 0.000000 0.000000 0.000000 0.000000 0.000000 0.000000 0.000000 0.000000 0.000000 0.000000 0.000000 0.000000 0.000000 0.000000 0.000000 0.000000 0.000000 0.000000 0.000000 0.000000 0.000000
0.321939 0.304338 0.287599 0.271685 0.256562 0.242195 0.228551 0.215599 0.203309 0.191652 0.180598 0.170121 0.160194 0.150792 0.141891 0.133467 0.125498 0.117962 0.110839 0.104107 0.097749 0.091746 0.086080 0.080735 0.075694 0.070941 0.066463 0.062244 0.058272 0.054533 0.051015 0.047707 0.044596 0.041673 0.038927 0.036349 0.033929 0.031658 0.029528 0.027531 0.025660 0.023907 0.022265 0.020728 0.019291 0.017946 0.016689 0.015514 0.014416 0.013391 0.012434 0.011541 0.010708 0.009932 0.009209 0.008534 0.007907 0.007322 0.006779 0.006273 0.005803 0.005366 0.004960 0.004583 0.004233 0.003909 0.003607 0.003328 0.003069 0.002830 0.002608 0.002402 0.002212 0.002036 0.001874 0.001723 0.001585 0.001456 0.001338 0.001229 0.001128 0.001035 0.000950 0.000871 0.000798 0.000732 0.000670 0.000613 0.000561 0.000514 0.000470 0.000429 0.000392 0.000359 0.000327 0.000299 0.000273 0.000249 0.000227 0.000207 0.000188 0.000171 0.000156 0.000142 0.000129 0.000117 0.000107 0.000097 0.000088 0.000080 0.000073 0.000066 0.000060 0.000054 0.000049 0.000044 0.000040 0.000036 0.000033 0.000030 0.000027 0.000024 0.000022 0.000020 0.000018 0.000016 0.000015 0.000013 0.000012 0.000011 0.000010 0.000009 0.000008 0.000007 0.000006 0.000006 0.000005 0.000005 0.000004 0.000004 0.000003 0.000003 0.000003 0.000002 0.000002 0.000002 0.000002 0.000002 0.000001 0.000001 0.000001 0.000001 0.000001 0.000001 0.000001 0.000001 0.000001 0.000000 0.000000 0.000000 0.000000 0.000000 0.000000 0.000000 0.000000 0.000000 0.000000 0.000000 0.000000 0.000000 0.000000 0.000000 0.000000 0.000000 0.000000 0.000000 0.000000 0.000000 0.000000 0.000000 0.000000 0.000000 0.000000 0.000000 0.000000 0.000000 0.000000 0.000000 0.000000 0.000000 0.000000 0.000000 0.000000 0.000000 0.000000 0.000000 0.000000 0.000000 0.000000 0.000000 0.000000 0.000000 0.000000 0.000000 0.000000 0.000000 0.000000 0.000000 0.000000 0.000000 0.000000 0.000000 0.000000 0.000000 0.000000 0.000000 0.000000 0.000000 0.000000 0.000000 0.000000 0.000000 0.000000 0.000000 0.000000 0.000000 0.000000 0.000000 0.000000 0.000000 0.000000 0.000000 0.000000 0.000000 0.000000 0.000000 0.000000 0.000000 0.000000 0.000000 0.000000 0.000000 0.000000 0.000000 0.000000 0.000000 0.000000 0.000000 0.000000 0.000000 0.000000 0.000000 0.000000 0.000000 0.000000 0.000000 0.000000 0.000000 0.000000 0.000000 0.000000 0.000000 0.000000 0.000000 0.000000 0.000000 0.000000 0.000000 0.000000 0.000000 0.000000 0.000000 0.000000 0.000000 0.000000 0.000000 0.000000 0.000000 0.000000 0.000000 0.000000 0.000000 0.000000 0.000000 0.000000 0.000000 0.000000 0.000000 0.000000 0.000000 0.000000 0.000000 0.000000 0.000000 0.000000 0.000000 0.000000 0.000000 0.000000 0.000000 0.000000 0.000000 0.000000 0.000000 0.000000 0.000000 0.000000 0.000000 0.000000 0.000000 0.000000 0.000000 0.000000 0.000000
0.297815 0.281535 0.266052 0.251331 0.237342 0.224052 0.211431 0.199450 0.188081 0.177297 0.167072 0.157380 0.148197 0.139500 0.131265 0.123473 0.116101 0.109129 0.102539 0.096312 0.090430 0.084877 0.079635 0.074690 0.070026 0.065630 0.061487 0.057584 0.053909 0.050450 0.047196 0.044135 0.041258 0.038553 0.036013 0.033628 0.031389 0.029288 0.027317 0.025470 0.023739 0.022117 0.020598 0.019177 0.017847 0.016603 0.015439 0.014352 0.013337 0.012388 0.011503 0.010677 0.009907 0.009189 0.008519 0.007896 0.007315 0.006774 0.006271 0.005804 0.005369 0.004964 0.004589 0.004240 0.003916 0.003616 0.003337 0.003079 0.002840 0.002618 0.002413 0.002222 0.002047 0.001884 0.001733 0.001594 0.001466 0.001347 0.001238 0.001137 0.001044 0.000958 0.000879 0.000806 0.000739 0.000677 0.000620 0.000568 0.000519 0.000475 0.000435 0.000397 0.000363 0.000332 0.000303 0.000276 0.000252 0.000230 0.000210 0.000191 0.000174 0.000159 0.000144 0.000131 0.000120 0.000109 0.000099 0.000090 0.000082 0.000074 0.000067 0.000061 0.000055 0.000050 0.000045 0.000041 0.000037 0.000034 0.000030 0.000028 0.000025 0.000023 0.000020 0.000018 0.000017 0.000015 0.000014 0.000012 0.000011 0.000010 0.000009 0.000008 0.000007 0.000006 0.000006 0.000005 0.000005 0.000004 0.000004 0.000003 0.000003 0.000003 0.000002 0.000002 0.000002 0.000002 0.000002 0.000001 0.000001 0.000001 0.000001 0.000001 0.000001 0.000001 0.000001 0.000001 0.000001 0.000000 0.000000 0.000000 0.000000 0.000000 0.000000 0.000000 0.000000 0.000000 0.000000 0.000000 0.000000 0.000000 0.000000 0.000000 0.000000 0.000000 0.000000 0.000000 0.000000 0.000000 0.000000 0.000000 0.000000 0.000000 0.000000 0.000000 0.000000 0.000000 0.000000 0.000000 0.000000 0.000000 0.000000 0.000000 0.000000 0.000000 0.000000 0.000000 0.000000 0.000000 0.000000 0.000000 0.000000 0.000000 0.000000 0.000000 0.000000 0.000000 0.000000 0.000000 0.000000 0.000000 0.000000 0.000000 0.000000 0.000000 0.000000 0.000000 0.000000 0.000000 0.000000 0.000000 0.000000 0.000000 0.000000 0.000000 0.000000 0.000000 0.000000 0.000000 0.000000 0.000000 0.000000 0.000000 0.000000 0.000000 0.000000 0.000000 0.000000 0.000000 0.000000 0.000000 0.000000 0.000000 0.000000 0.000000 0.000000 0.000000 0.000000 0.000000 0.000000 0.000000 0.000000 0.000000 0.000000 0.000000 0.000000 0.000000 0.000000 0.000000 0.000000 0.000000 0.000000 0.000000 0.000000 0.000000 0.000000 0.000000 0.000000 0.000000 0.000000 0.000000 0.000000 0.000000 0.000000 0.000000 0.000000 0.000000 0.000000 0.000000 0.000000 0.000000 0.000000 0.000000 0.000000 0.000000 0.000000 0.000000 0.000000 0.000000 0.000000 0.000000 0.000000 0.000000 0.000000 0.000000 0.000000 0.000000 0.000000 0.000000 0.000000 0.000000 0.000000 0.000000 0.000000 0.000000 0.000000 0.000000 0.000000 0.000000 0.000000 0.000000 0.000000 0.000000 0.000000 0.000000
