nCols  307
nRows  28
xllcenter  1390
yllcenter -4260
cellsize  5
nodata_value -9999.00
446.968719 446.022021 445.072490 444.120116 443.164890 442.206802 441.245841 440.282000 439.315266 438.345632 437.373086 436.397619 435.419222 434.437884 433.453595 432.466346 431.476126 430.482927 429.486737 428.487548 427.485348 426.480129 425.471880 424.460592 423.446255 422.428858 421.408392 420.384847 419.358213 418.328481 417.295640 416.259680 415.220592 414.178366 413.132992 412.084460 411.032760 409.977883 408.919819 407.858557 406.794090 405.726405 404.655495 403.581349 402.503957 401.423310 400.339398 399.252212 398.161743 397.067980 395.970913 394.870535 393.766835 392.659803 391.549431 390.435709 389.318628 388.198179 387.074352 385.947138 384.816528 383.682513 382.545085 381.404233 380.259950 379.112226 377.961053 376.806422 375.648324 374.486751 373.321694 372.153144 370.981094 369.805535 368.626459 367.443857 366.257722 365.068046 363.874821 362.678038 361.477691 360.273771 359.066271 357.855185 356.640503 355.422220 354.200328 352.974820 351.745690 350.512930 349.276534 348.036496 346.792808 345.545466 344.294463 343.039792 341.781449 340.519427 339.253722 337.984327 336.711237 335.434448 334.153955 332.869753 331.581837 330.290204 328.994849 327.695768 326.392958 325.086414 323.776134 322.462115 321.144354 319.822847 318.497594 317.168590 315.835835 314.499327 313.159064 311.815044 310.467268 309.115734 307.760443 306.401392 305.038584 303.672018 302.301696 300.927617 299.549784 298.168198 296.782861 295.393776 294.000945 292.604370 291.204057 289.800008 288.392227 286.980719 285.565488 284.146541 282.723883 281.297519 279.867456 278.433702 276.996263 275.555148 274.110365 272.661921 271.209828 269.754094 268.294730 266.831746 265.365154 263.894965 262.421191 260.943847 259.462944 257.978497 256.490521 254.999030 253.504041 252.005570 250.503634 248.998250 247.489438 245.977215 244.461602 242.942619 241.420288 239.894629 238.365666 236.833421 235.297920 233.759186 232.217246 230.672126 229.123853 227.572456 226.017963 224.460404 222.899810 221.336213 219.769645 218.200140 216.627733 215.052458 213.474353 211.893455 210.309801 208.723433 207.134391 205.542715 203.948450 202.351639 200.752327 199.150561 197.546387 195.939855 194.331015 192.719918 191.106615 189.491162 187.873612 186.254023 184.632452 183.008958 181.383602 179.756445 178.127552 176.496987 174.864817 173.231109 171.595933 169.959361 168.321464 166.682318 165.041998 163.400582 161.758149 160.114781 158.470560 156.825572 155.179903 153.533640 151.886875 150.239700 148.592209 146.944497 145.296664 143.648808 142.001033 140.353442 138.706143 137.059243 135.412853 133.767086 132.122057 130.477884 128.834687 127.192587 125.551709 123.912179 122.274128 120.637686 119.002989 117.370172 115.739375 114.110740 112.484411 110.860536 109.239264 107.620748 106.005143 104.392608 102.783302 101.177391 99.575040 97.976419 96.381701 94.791061 93.204677 91.622731 90.045407 88.472894 86.905381 85.343062 83.786136 82.234801 80.689262 79.149724 77.616399 76.089500 74.569242 73.055847 71.549538 70.050541 68.559086 67.075409 65.599745 64.132335 62.673424 61.223258 59.782091 58.350175 56.927771 55.515139 54.112545 52.720258 51.338552 49.967702 48.607989 47.259695 45.923110 44.598523 43.286228 41.986525 40.699715 39.426103 38.165999 36.919715 35.687567 34.469875 33.266963 32.079157 30.906787 29.750188 28.609697
449.253028 448.307750 447.359630 446.408659 445.454826 444.498122 443.538537 442.576060 441.610682 440.642393 439.671183 438.697042 437.719960 436.739927 435.756932 434.770966 433.782020 432.790082 431.795142 430.797192 429.796220 428.792217 427.785172 426.775076 425.761918 424.745688 423.726377 422.703974 421.678469 420.649853 419.618114 418.583244 417.545231 416.504067 415.459740 414.412242 413.361561 412.307688 411.250613 410.190327 409.126818 408.060077 406.990095 405.916861 404.840365 403.760598 402.677550 401.591210 400.501570 399.408619 398.312348 397.212747 396.109806 395.003515 393.893866 392.780848 391.664452 390.544669 389.421489 388.294902 387.164900 386.031472 384.894610 383.754305 382.610547 381.463327 380.312636 379.158466 378.000806 376.839649 375.674986 374.506807 373.335105 372.159870 370.981094 369.798769 368.612886 367.423437 366.230413 365.033808 363.833612 362.629817 361.422416 360.211402 358.996766 357.778501 356.556599 355.331054 354.101858 352.869003 351.632484 350.392293 349.148423 347.900868 346.649622 345.394677 344.136029 342.873670 341.607596 340.337800 339.064277 337.787021 336.506027 335.221290 333.932806 332.640569 331.344575 330.044819 328.741299 327.434008 326.122945 324.808104 323.489484 322.167080 320.840891 319.510913 318.177143 316.839580 315.498222 314.153067 312.804113 311.451360 310.094807 308.734452 307.370296 306.002338 304.630579 303.255019 301.875659 300.492501 299.105545 297.714794 296.320249 294.921913 293.519790 292.113881 290.704192 289.290725 287.873484 286.452476 285.027704 283.599175 282.166894 280.730867 279.291102 277.847605 276.400385 274.949449 273.494807 272.036466 270.574437 269.108731 267.639356 266.166326 264.689651 263.209343 261.725416 260.237882 258.746756 257.252052 255.753786 254.251972 252.746628 251.237770 249.725417 248.209585 246.690296 245.167567 243.641420 242.111875 240.578955 239.042682 237.503080 235.960172 234.413984 232.864541 231.311870 229.755999 228.196955 226.634768 225.069468 223.501086 221.929653 220.355203 218.777769 217.197386 215.614090 214.027917 212.438905 210.847093 209.252522 207.655231 206.055263 204.452662 202.847471 201.239736 199.629504 198.016822 196.401741 194.784310 193.164581 191.542607 189.918442 188.292142 186.663764 185.033366 183.401008 181.766752 180.130660 178.492796 176.853227 175.212018 173.569240 171.924962 170.279257 168.632198 166.983860 165.334321 163.683659 162.031955 160.379291 158.725751 157.071420 155.416388 153.760743 152.104577 150.447983 148.791057 147.133897 145.476602 143.819274 142.162016 140.504934 138.848137 137.191734 135.535839 133.880564 132.226029 130.572352 128.919654 127.268060 125.617696 123.968691 122.321177 120.675287 119.031158 117.388929 115.748741 114.110740 112.475071 110.841885 109.211335 107.583574 105.958762 104.337060 102.718630 101.103640 99.492260 97.884661 96.281021 94.681516 93.086330 91.495646 89.909654 88.328543 86.752508 85.181748 83.616462 82.056854 80.503133 78.955508 77.414195 75.879409 74.351373 72.830311 71.316450 69.810021 68.311260 66.820405 65.337698 63.863384 62.397713 60.940936 59.493310 58.055096 56.626556 55.207959 53.799575 52.401678 51.014547 49.638465 48.273716 46.920591 45.579382 44.250387 42.933905 41.630243 40.339706 39.062608 37.799263 36.549991 35.315115 34.094961 32.889859 31.700142 30.526148 29.368218
451.546992 450.603172 449.656501 448.706970 447.754569 446.799287 445.841115 444.880042 443.916059 442.949155 441.979320 441.006543 440.030816 439.052127 438.070467 437.085825 436.098191 435.107555 434.113907 433.117236 432.117533 431.114787 430.108987 429.100124 428.088188 427.073168 426.055053 425.033835 424.009501 422.982043 421.951450 420.917712 419.880818 418.840759 417.797524 416.751102 415.701485 414.648660 413.592619 412.533352 411.470847 410.405095 409.336086 408.263809 407.188255 406.109414 405.027275 403.941828 402.853064 401.760972 400.665542 399.566765 398.464630 397.359129 396.250250 395.137984 394.022321 392.903252 391.780767 390.654856 389.525510 388.392718 387.256472 386.116762 384.973579 383.826913 382.676754 381.523094 380.365924 379.205234 378.041015 376.873258 375.701954 374.527095 373.348671 372.166674 370.981094 369.791924 368.599155 367.402779 366.202787 364.999170 363.791922 362.581033 361.366496 360.148302 358.926445 357.700916 356.471708 355.238814 354.002225 352.761936 351.517938 350.270226 349.018792 347.763629 346.504731 345.242091 343.975704 342.705563 341.431662 340.153995 338.872557 337.587343 336.298347 335.005563 333.708987 332.408615 331.104441 329.796462 328.484672 327.169069 325.849648 324.526405 323.199338 321.868444 320.533718 319.195160 317.852766 316.506534 315.156462 313.802549 312.444793 311.083193 309.717748 308.348458 306.975323 305.598342 304.217515 302.832844 301.444330 300.051973 298.655775 297.255738 295.851865 294.444158 293.032620 291.617255 290.198065 288.775056 287.348232 285.917598 284.483159 283.044921 281.602890 280.157073 278.707477 277.254110 275.796978 274.336092 272.871460 271.403091 269.930996 268.455184 266.975667 265.492457 264.005566 262.515006 261.020791 259.522934 258.021450 256.516354 255.007662 253.495390 251.979555 250.460174 248.937267 247.410851 245.880948 244.347576 242.810758 241.270515 239.726869 238.179845 236.629467 235.075759 233.518747 231.958459 230.394921 228.828162 227.258212 225.685100 224.108857 222.529517 220.947111 219.361674 217.773240 216.181846 214.587529 212.990326 211.390278 209.787423 208.181804 206.573462 204.962442 203.348788 201.732546 200.113764 198.492489 196.868771 195.242662 193.614213 191.983478 190.350511 188.715370 187.078111 185.438795 183.797480 182.154230 180.509107 178.862177 177.213506 175.563163 173.911216 172.257737 170.602800 168.946478 167.288848 165.629988 163.969978 162.308899 160.646836 158.983872 157.320095 155.655594 153.990461 152.324787 150.658669 148.992202 147.325485 145.658621 143.991711 142.324862 140.658180 138.991776 137.325761 135.660250 133.995359 132.331206 130.667914 129.005606 127.344408 125.684448 124.025858 122.368771 120.713323 119.059653 117.407903 115.758216 114.110740 112.465624 110.823020 109.183083 107.545972 105.911848 104.280873 102.653216 101.029045 99.408533 97.791856 96.179193 94.570726 92.966640 91.367123 89.772367 88.182566 86.597919 85.018627 83.444894 81.876928 80.314941 78.759148 77.209767 75.667019 74.131130 72.602329 71.080847 69.566921 68.060790 66.562698 65.072890 63.591618 62.119136 60.655701 59.201574 57.757022 56.322312 54.897718 53.483516 52.079987 50.687414 49.306086 47.936293 46.578333 45.232502 43.899106 42.578450 41.270846 39.976607 38.696052 37.429504 36.177287 34.939731 33.717170 32.509941 31.318383 30.142842
453.850632 452.908307 451.963124 451.015071 450.064140 449.110319 448.153599 447.193969 446.231419 445.265938 444.297517 443.326146 442.351813 441.374509 440.394223 439.410945 438.424664 437.435371 436.443055 435.447705 434.449312 433.447864 432.443351 431.435764 430.425091 429.411322 428.394447 427.374455 426.351336 425.325080 424.295676 423.263113 422.227382 421.188471 420.146371 419.101071 418.052561 417.000830 415.945867 414.887664 413.826208 412.761490 411.693500 410.622227 409.547661 408.469791 407.388607 406.304100 405.216258 404.125072 403.030531 401.932625 400.831345 399.726679 398.618619 397.507153 396.392272 395.273966 394.152224 393.027038 391.898397 390.766291 389.630710 388.491645 387.349087 386.203024 385.053449 383.900350 382.743720 381.583547 380.419824 379.252540 378.081687 376.907255 375.729234 374.547617 373.362394 372.173556 370.981094 369.785000 368.585265 367.381880 366.174837 364.964127 363.749743 362.531675 361.309917 360.084459 358.855294 357.622414 356.385812 355.145480 353.901410 352.653595 351.402029 350.146704 348.887612 347.624748 346.358104 345.087675 343.813453 342.535433 341.253609 339.967974 338.678523 337.385251 336.088152 334.787220 333.482452 332.173841 330.861385 329.545077 328.224914 326.900891 325.573006 324.241254 322.905633 321.566138 320.222768 318.875519 317.524389 316.169376 314.810478 313.447693 312.081020 310.710459 309.336008 307.957666 306.575434 305.189312 303.799299 302.405398 301.007608 299.605932 298.200370 296.790926 295.377602 293.960399 292.539322 291.114375 289.685560 288.252883 286.816348 285.375961 283.931726 282.483651 281.031741 279.576003 278.116445 276.653075 275.185901 273.714932 272.240177 270.761647 269.279350 267.793300 266.303506 264.809981 263.312738 261.811789 260.307149 258.798832 257.286853 255.771228 254.251972 252.729103 251.202639 249.672597 248.138997 246.601859 245.061202 243.517048 241.969420 240.418339 238.863829 237.305915 235.744621 234.179974 232.612000 231.040727 229.466183 227.888399 226.307404 224.723229 223.135907 221.545471 219.951956 218.355396 216.755827 215.153288 213.547815 211.939450 210.328232 208.714202 207.097405 205.477883 203.855681 202.230848 200.603428 198.973473 197.341031 195.706154 194.068896 192.429309 190.787450 189.143375 187.497143 185.848813 184.198447 182.546107 180.891857 179.235764 177.577894 175.918316 174.257101 172.594321 170.930051 169.264364 167.597340 165.929056 164.259594 162.589036 160.917468 159.244974 157.571645 155.897569 154.222840 152.547551 150.871798 149.195681 147.519299 145.842755 144.166154 142.489603 140.813210 139.137088 137.461350 135.786111 134.111491 132.437610 130.764592 129.092561 127.421646 125.751979 124.083691 122.416919 120.751802 119.088480 117.427097 115.767801 114.110740 112.456066 110.803935 109.154504 107.507935 105.864391 104.224038 102.587047 100.953589 99.323843 97.697985 96.076198 94.458669 92.845584 91.237137 89.633522 88.034937 86.441585 84.853670 83.271401 81.694991 80.124654 78.560609 77.003080 75.452292 73.908475 72.371862 70.842690 69.321199 67.807635 66.302244 64.805279 63.316995 61.837651 60.367511 58.906840 57.455910 56.014995 54.584374 53.164329 51.755145 50.357113 48.970526 47.595682 46.232884 44.882435 43.544646 42.219830 40.908305 39.610390 38.326411 37.056697 35.801581 34.561398 33.336489 32.127199 30.933874
456.163966 455.223175 454.279517 453.332982 452.383559 451.431238 450.476008 449.517860 448.556782 447.592765 446.625799 445.655871 444.682973 443.707094 442.728223 441.746349 440.761463 439.773554 438.782611 437.788623 436.791581 435.791473 434.788290 433.782020 432.772653 431.760178 430.744585 429.725863 428.704001 427.678990 426.650818 425.619475 424.584950 423.547232 422.506312 421.462178 420.414819 419.364226 418.310388 417.253293 416.192932 415.129294 414.062369 412.992145 411.918613 410.841761 409.761580 408.678058 407.591186 406.500953 405.407349 404.310363 403.209984 402.106203 400.999009 399.888392 398.774341 397.656847 396.535899 395.411486 394.283600 393.152229 392.017364 390.878995 389.737111 388.591703 387.442761 386.290275 385.134235 383.974632 382.811456 381.644698 380.474346 379.300394 378.122830 376.941646 375.756831 374.568378 373.376277 372.180519 370.981094 369.777995 368.571211 367.360735 366.146558 364.928671 363.707066 362.481734 361.252668 360.019858 358.783298 357.542979 356.298893 355.051033 353.799391 352.543959 351.284731 350.021699 348.754857 347.484197 346.209712 344.931396 343.649243 342.363246 341.073399 339.779696 338.482132 337.180700 335.875396 334.566214 333.253149 331.936196 330.615351 329.290609 327.961965 326.629417 325.292959 323.952589 322.608302 321.260097 319.907969 318.551917 317.191938 315.828030 314.460191 313.088419 311.712714 310.333073 308.949498 307.561986 306.170538 304.775154 303.375834 301.972581 300.565393 299.154274 297.739226 296.320249 294.897347 293.470524 292.039781 290.605124 289.166556 287.724082 286.277707 284.827436 283.373275 281.915230 280.453309 278.987518 277.517865 276.044359 274.567008 273.085821 271.600808 270.111980 268.619346 267.122919 265.622711 264.118734 262.611000 261.099524 259.584321 258.065404 256.542790 255.016495 253.486535 251.952929 250.415695 248.874851 247.330417 245.782414 244.230863 242.675785 241.117205 239.555144 237.989628 236.420682 234.848331 233.272603 231.693526 230.111127 228.525437 226.936486 225.344306 223.748929 222.150388 220.548718 218.943954 217.336133 215.725292 214.111471 212.494707 210.875044 209.252522 207.627184 205.999076 204.368242 202.734730 201.098587 199.459862 197.818607 196.174874 194.528715 192.880185 191.229340 189.576238 187.920938 186.263500 184.603986 182.942459 181.278984 179.613628 177.946459 176.277547 174.606963 172.934780 171.261073 169.585919 167.909396 166.231583 164.552564 162.872421 161.191240 159.509110 157.826120 156.142360 154.457925 152.772911 151.087415 149.401536 147.715378 146.029043 144.342638 142.656272 140.970056 139.284103 137.598528 135.913448 134.228986 132.545262 130.862403 129.180536 127.499791 125.820301 124.142203 122.465632 120.790732 119.117645 117.446517 115.777498 114.110740 112.446397 110.784628 109.125592 107.469454 105.816381 104.166542 102.520109 100.877260 99.238173 97.603030 95.972017 94.345323 92.723139 91.105662 89.493091 87.885626 86.283475 84.686846 83.095951 81.511008 79.932235 78.359856 76.794097 75.235190 73.683369 72.138870 70.601938 69.072815 67.551752 66.039002 64.534821 63.039471 61.553215 60.076322 58.609064 57.151718 55.704563 54.267885 52.841969 51.427110 50.023602 48.631746 47.251845 45.884207 44.529145 43.186974 41.858015 40.542590 39.241027 37.953659 36.680821 35.422853 34.180099 32.952904 31.741622
458.487015 457.547796 456.605702 455.660722 454.712846 453.762064 452.808364 451.851737 450.892172 449.929658 448.964185 447.995742 447.024319 446.049905 445.072490 444.092062 443.108611 442.122127 441.132598 440.140015 439.144366 438.145640 437.143828 436.138918 435.130899 434.119761 433.105493 432.088084 431.067523 430.043801 429.016905 427.986825 426.953550 425.917070 424.877374 423.834450 422.788289 421.738879 420.686210 419.630271 418.571050 417.508538 416.442723 415.373596 414.301144 413.225357 412.146226 411.063738 409.977883 408.888651 407.796031 406.700012 405.600583 404.497735 403.391457 402.281737 401.168566 400.051933 398.931827 397.808239 396.681157 395.550572 394.416473 393.278850 392.137692 390.992990 389.844732 388.692910 387.537514 386.378532 385.215955 384.049774 382.879978 381.706557 380.529503 379.348804 378.164453 376.976438 375.784751 374.589383 373.390323 372.187563 370.981094 369.770907 368.556992 367.339341 366.117945 364.892795 363.663882 362.431199 361.194737 359.954487 358.710442 357.462593 356.210933 354.955452 353.696145 352.433004 351.166020 349.895187 348.620497 347.341944 346.059521 344.773220 343.483036 342.188962 340.890992 339.589120 338.283340 336.973646 335.660033 334.342496 333.021028 331.695627 330.366286 329.033001 327.695768 326.354583 325.009442 323.660342 322.307279 320.950250 319.589251 318.224282 316.855338 315.482419 314.105521 312.724645 311.339788 309.950949 308.558128 307.161325 305.760539 304.355771 302.947021 301.534291 300.117582 298.696894 297.272232 295.843596 294.410989 292.974416 291.533879 290.089382 288.640930 287.188527 285.732179 284.271892 282.807671 281.339524 279.867456 278.391477 276.911594 275.427815 273.940149 272.448607 270.953198 269.453933 267.950824 266.443881 264.933118 263.418547 261.900183 260.378038 258.852129 257.322471 255.789080 254.251972 252.711166 251.166679 249.618531 248.066741 246.511329 244.952317 243.389728 241.823583 240.253906 238.680721 237.104055 235.523932 233.940381 232.353428 230.763103 229.169435 227.572456 225.972196 224.368688 222.761966 221.152064 219.539019 217.922867 216.303645 214.681393 213.056150 211.427958 209.796860 208.162898 206.526117 204.886564 203.244286 201.599330 199.951748 198.301589 196.648907 194.993755 193.336189 191.676264 190.014040 188.349576 186.682933 185.014173 183.343361 181.670562 179.995843 178.319275 176.640926 174.960870 173.279180 171.595933 169.911206 168.225077 166.537630 164.848945 163.159109 161.468208 159.776332 158.083570 156.390016 154.695765 153.000914 151.305561 149.609809 147.913760 146.217521 144.521199 142.824904 141.128749 139.432850 137.737322 136.042287 134.347866 132.654184 130.961369 129.269549 127.578858 125.889430 124.201404 122.514920 120.830121 119.147153 117.466165 115.787309 114.110740 112.436614 110.765093 109.096341 107.430523 105.767809 104.108373 102.452391 100.800041 99.151506 97.506972 95.866627 94.230665 92.599281 90.972674 89.351047 87.734606 86.123560 84.518123 82.918511 81.324945 79.737649 78.156850 76.582780 75.015674 73.455771 71.903314 70.358549 68.821726 67.293100 65.772928 64.261474 62.759002 61.265783 59.782091 58.308203 56.844402 55.390973 53.948206 52.516396 51.095840 49.686841 48.289705 46.904742 45.532267 44.172597 42.826056 41.492971 40.173671 38.868492 37.577772 36.301854 35.041086 33.795817 32.566403
460.819797 459.882189 458.941697 457.998312 457.052023 456.102818 455.150688 454.195622 453.237609 452.276638 451.312699 450.345781 449.375873 448.402965 447.427046 446.448105 445.466131 444.481113 443.493041 442.501903 441.507690 440.510389 439.509990 438.506482 437.499855 436.490097 435.477197 434.461145 433.441929 432.419539 431.393963 430.365191 429.333211 428.298013 427.259586 426.217919 425.173000 424.124819 423.073364 422.018626 420.960592 419.899252 418.834595 417.766610 416.695286 415.620612 414.542577 413.461170 412.376381 411.288198 410.196610 409.101607 408.003178 406.901312 405.795998 404.687225 403.574983 402.459261 401.340048 400.217334 399.091108 397.961359 396.828076 395.691250 394.550870 393.406924 392.259404 391.108298 389.953596 388.795288 387.633363 386.467812 385.298624 384.125789 382.949297 381.769138 380.585303 379.397781 378.206563 377.011639 375.812999 374.610634 373.404535 372.194691 370.981094 369.763735 368.542604 367.317692 366.088990 364.856490 363.620183 362.380060 361.136113 359.888332 358.636711 357.381240 356.121912 354.858719 353.591652 352.320705 351.045869 349.767138 348.484504 347.197959 345.907498 344.613113 343.314797 342.012545 340.706349 339.396204 338.082104 336.764042 335.442014 334.116014 332.786037 331.452078 330.114132 328.772195 327.426262 326.076329 324.722392 323.364448 322.002494 320.636525 319.266541 317.892536 316.514511 315.132461 313.746386 312.356285 310.962155 309.563996 308.161808 306.755590 305.345342 303.931065 302.512759 301.090426 299.664067 298.233683 296.799278 295.360853 293.918411 292.471957 291.021493 289.567024 288.108554 286.646089 285.179634 283.709195 282.234779 280.756391 279.274041 277.787735 276.297483 274.803292 273.305173 271.803135 270.297189 268.787347 267.273619 265.756018 264.234558 262.709251 261.180111 259.647155 258.110396 256.569851 255.025537 253.477472 251.925673 250.370159 248.810951 247.248069 245.681533 244.111366 242.537591 240.960231 239.379311 237.794856 236.206893 234.615447 233.020549 231.422225 229.820506 228.215424 226.607009 224.995294 223.380314 221.762103 220.140697 218.516133 216.888449 215.257685 213.623880 211.987076 210.347316 208.704644 207.059104 205.410744 203.759610 202.105753 200.449221 198.790067 197.128344 195.464105 193.797408 192.128308 190.456866 188.783140 187.107193 185.429089 183.748891 182.066666 180.382484 178.696412 177.008524 175.318891 173.627590 171.934696 170.240289 168.544448 166.847257 165.148798 163.449159 161.748428 160.046693 158.344049 156.640588 154.936408 153.231606 151.526283 149.820542 148.114488 146.408228 144.701873 142.995533 141.289323 139.583360 137.877763 136.172654 134.468157 132.764399 131.061509 129.359619 127.658863 125.959380 124.261309 122.564793 120.869977 119.177012 117.486047 115.797237 114.110740 112.426716 110.745328 109.066744 107.391132 105.718666 104.049521 102.383877 100.721916 99.063824 97.409791 95.760009 94.114674 92.473985 90.838146 89.207363 87.581846 85.961809 84.347469 82.739047 81.136768 79.540860 77.951556 76.369091 74.793705 73.225643 71.665151 70.112481 68.567889 67.031634 65.503979 63.985192 62.475544 60.975311 59.484772 58.004211 56.533916 55.074179 53.625295 52.187566 50.761294 49.346789 47.944364 46.554335 45.177024 43.812755 42.461858 41.124667 39.801519 38.492756 37.198724 35.919774 34.656259 33.408538
463.162333 462.226373 461.287523 460.345772 459.401108 458.453521 457.503000 456.549534 455.593113 454.633726 453.671361 452.706009 451.737658 450.766297 449.791915 448.814502 447.834046 446.850536 445.863963 444.874313 443.881577 442.885743 441.886801 440.884739 439.879546 438.871211 437.859724 436.845072 435.827244 434.806231 433.782020 432.754600 431.723960 430.690090 429.652977 428.612611 427.568980 426.522074 425.471880 424.418389 423.361589 422.301468 421.238015 420.171220 419.101071 418.027557 416.950667 415.870389 414.786713 413.699627 412.609121 411.515183 410.417802 409.316967 408.212667 407.104891 405.993628 404.878868 403.760598 402.638809 401.513488 400.384627 399.252212 398.116235 396.976684 395.833547 394.686816 393.536478 392.382524 391.224942 390.063723 388.898855 387.730328 386.558133 385.382258 384.202693 383.019429 381.832454 380.641760 379.447335 378.249170 377.047256 375.841582 374.632138 373.418915 372.201904 370.981094 369.756477 368.528044 367.295784 366.059689 364.819750 363.575959 362.328305 361.076781 359.821379 358.562088 357.298902 356.031812 354.760810 353.485888 352.207039 350.924253 349.637525 348.346847 347.052211 345.753611 344.451039 343.144488 341.833953 340.519427 339.200904 337.878377 336.551841 335.221290 333.886719 332.548122 331.205495 329.858833 328.508130 327.153384 325.794589 324.431742 323.064838 321.693876 320.318851 318.939761 317.556604 316.169376 314.778076 313.382702 311.983252 310.579726 309.172123 307.760443 306.344684 304.924847 303.500934 302.072943 300.640878 299.204739 297.764529 296.320249 294.871903 293.419493 291.963024 290.502499 289.037923 287.569300 286.096636 284.619936 283.139208 281.654457 280.165691 278.672917 277.176144 275.675381 274.170637 272.661921 271.149245 269.632619 268.112055 266.587564 265.059160 263.526857 261.990667 260.450607 258.906691 257.358935 255.807356 254.251972 252.692801 251.129861 249.563172 247.992755 246.418631 244.840822 243.259351 241.674241 240.085517 238.493205 236.897330 235.297920 233.695003 232.088607 230.478764 228.865503 227.248857 225.628859 224.005543 222.378943 220.749096 219.116040 217.479812 215.840452 214.198000 212.552499 210.903992 209.252522 207.598135 205.940879 204.280800 202.617949 200.952376 199.284134 197.613275 195.939855 194.263931 192.585559 190.904800 189.221714 187.536364 185.848813 184.159128 182.467376 180.773625 179.077947 177.380413 175.681098 173.980078 172.277430 170.573234 168.867572 167.160527 165.452183 163.742630 162.031955 160.320250 158.607609 156.894127 155.179903 153.465034 151.749625 150.033779 148.317603 146.601205 144.884698 143.168194 141.451810 139.735665 138.019879 136.304577 134.589884 132.875929 131.162845 129.450764 127.739824 126.030164 124.321928 122.615260 120.910309 119.207226 117.506165 115.807283 114.110740 112.416700 110.725328 109.036796 107.351274 105.668940 103.989972 102.314554 100.642870 98.975111 97.311469 95.652141 93.997326 92.347227 90.702052 89.062011 87.427318 85.798190 84.174851 82.557525 80.946440 79.341831 77.743934 76.152989 74.569242 72.992941 71.424339 69.863692 68.311260 66.767310 65.232109 63.705930 62.189051 60.681753 59.184320 57.697044 56.220217 54.754137 53.299108 51.855434 50.423428 49.003405 47.595682 46.200585 44.818441 43.449583 42.094346 40.753071 39.426103 38.113793 36.816492 35.534559 34.268355
465.514640 464.580369 463.643199 462.703120 461.760121 460.814191 459.865319 458.913494 457.958706 457.000942 456.040193 455.076447 454.109693 453.139921 452.167118 451.191274 450.212379 449.230420 448.245386 447.257268 446.266052 445.271728 444.274285 443.273712 442.269997 441.263130 440.253098 439.239890 438.223496 437.203904 436.181102 435.155079 434.125825 433.093327 432.057574 431.018555 429.976258 428.930673 427.881787 426.829590 425.774070 424.715215 423.653014 422.587457 421.518530 420.446224 419.370527 418.291427 417.208913 416.122973 415.033597 413.940773 412.844490 411.744736 410.641500 409.534771 408.424538 407.310789 406.193514 405.072700 403.948338 402.820415 401.688920 400.553844 399.415174 398.272899 397.127009 395.977493 394.824339 393.667537 392.507076 391.342946 390.175135 389.003633 387.828429 386.649514 385.466875 384.280503 383.090387 381.896518 380.698884 379.497476 378.292283 377.083296 375.870504 374.653898 373.433467 372.209203 370.981094 369.749133 368.513309 367.273613 366.030035 364.782567 363.531200 362.275924 361.016731 359.753612 358.486558 357.215561 355.940613 354.661706 353.378830 352.091979 350.801145 349.506320 348.207496 346.904666 345.597823 344.286961 342.972071 341.653148 340.330185 339.003176 337.672114 336.336994 334.997810 333.654557 332.307229 330.955821 329.600329 328.240747 326.877071 325.509298 324.137423 322.761442 321.381353 319.997152 318.608837 317.216404 315.819851 314.419177 313.014380 311.605458 310.192410 308.775236 307.353935 305.928508 304.498953 303.065273 301.627468 300.185539 298.739488 297.289317 295.835029 294.376627 292.914114 291.447493 289.976770 288.501948 287.023034 285.540031 284.052947 282.561788 281.066562 279.567274 278.063935 276.556552 275.045134 273.529692 272.010235 270.486774 268.959321 267.427888 265.892488 264.353133 262.809838 261.262617 259.711487 258.156461 256.597559 255.034796 253.468190 251.897762 250.323530 248.745515 247.163737 245.578220 243.988986 242.396058 240.799462 239.199222 237.595365 235.987918 234.376909 232.762368 231.144325 229.522810 227.897856 226.269496 224.637765 223.002696 221.364328 219.722697 218.077841 216.429801 214.778618 213.124334 211.466991 209.806635 208.143312 206.477069 204.807954 203.136017 201.461310 199.783884 198.103795 196.421097 194.735848 193.048106 191.357931 189.665384 187.970529 186.273431 184.574155 182.872771 181.169347 179.463956 177.756670 176.047564 174.336717 172.624205 170.910110 169.194515 167.477504 165.759163 164.039581 162.318849 160.597059 158.874306 157.150686 155.426300 153.701248 151.975634 150.249564 148.523147 146.796492 145.069712 143.342925 141.616246 139.889797 138.163701 136.438083 134.713072 132.988799 131.265398 129.543004 127.821757 126.101799 124.383276 122.666334 120.951125 119.237803 117.526524 115.817449 114.110740 112.406564 110.705089 109.006490 107.310941 105.618622 103.929715 102.244407 100.562886 98.885347 97.211985 95.543000 93.878596 92.218980 90.564363 88.914960 87.270989 85.632672 84.000235 82.373909 80.753926 79.140524 77.533946 75.934436 74.342244 72.757624 71.180834 69.612136 68.051796 66.500083 64.957272 63.423643 61.899477 60.385062 58.880689 57.386654 55.903257 54.430802 52.969598 51.519958 50.082200 48.656644 47.243619 45.843453 44.456481 43.083044 41.723485 40.378151 39.047396 37.731576 36.431051 35.146188
467.876737 466.944193 466.008744 465.070377 464.129083 463.184850 462.237667 461.287523 460.334408 459.378309 458.419215 457.457117 456.492002 455.523859 454.552677 453.578445 452.601152 451.620786 450.637336 449.650790 448.661138 447.668367 446.672467 445.673426 444.671233 443.665877 442.657345 441.645626 440.630709 439.612583 438.591236 437.566656 436.538832 435.507752 434.473405 433.435779 432.394863 431.350646 430.303114 429.252258 428.198065 427.140524 426.079623 425.015350 423.947695 422.876645 421.802189 420.724315 419.643012 418.558268 417.470072 416.378412 415.283276 414.184654 413.082532 411.976901 410.867748 409.755063 408.638832 407.519046 406.395693 405.268761 404.138238 403.004115 401.866379 400.725019 399.580023 398.431381 397.279082 396.123114 394.963466 393.800127 392.633087 391.462333 390.287856 389.109644 387.927686 386.741972 385.552492 384.359234 383.162187 381.961342 380.756688 379.548214 378.335910 377.119767 375.899773 374.675918 373.448194 372.216589 370.981094 369.741700 368.498396 367.251173 366.000021 364.744932 363.485897 362.222905 360.955948 359.685017 358.410104 357.131199 355.848295 354.561383 353.270454 351.975501 350.676516 349.373491 348.066419 346.755291 345.440101 344.120842 342.797506 341.470087 340.138579 338.802974 337.463267 336.119452 334.771523 333.419474 332.063301 330.702997 329.338559 327.969981 326.597259 325.220389 323.839366 322.454188 321.064851 319.671352 318.273687 316.871855 315.465853 314.055680 312.641332 311.222810 309.800113 308.373239 306.942188 305.506960 304.067556 302.623977 301.176223 299.724296 298.268197 296.807931 295.343498 293.874902 292.402147 290.925236 289.444175 287.958967 286.469619 284.976136 283.478525 281.976792 280.470945 278.960992 277.446941 275.928801 274.406582 272.880294 271.349948 269.815554 268.277125 266.734674 265.188213 263.637756 262.083319 260.524915 258.962562 257.396275 255.826073 254.251972 252.673992 251.092153 249.506475 247.916979 246.323687 244.726622 243.125807 241.521268 239.913030 238.301119 236.685563 235.066389 233.443628 231.817308 230.187463 228.554123 226.917322 225.277095 223.633477 221.986505 220.336215 218.682648 217.025843 215.365842 213.702686 212.036421 210.367089 208.694739 207.019418 205.341173 203.660057 201.976120 200.289416 198.599999 196.907925 195.213253 193.516040 191.816348 190.114238 188.409776 186.703026 184.994055 183.282932 181.569729 179.854516 178.137370 176.418364 174.697579 172.975092 171.250986 169.525345 167.798254 166.069801 164.340076 162.609170 160.877177 159.144194 157.410319 155.675653 153.940297 152.204359 150.467944 148.731164 146.994129 145.256956 143.519761 141.782665 140.045789 138.309259 136.573202 134.837749 133.103033 131.369190 129.636358 127.904680 126.174300 124.445364 122.718025 120.992434 119.268749 117.547129 115.827738 114.110740 112.396305 110.684607 108.975820 107.270123 105.567700 103.868736 102.173421 100.481948 98.794514 97.111318 95.432564 93.758461 92.089218 90.425053 88.766182 87.112829 85.465221 83.823587 82.188163 80.559186 78.936900 77.321551 75.713388 74.112668 72.519649 70.934594 69.357770 67.789448 66.229906 64.679422 63.138282 61.606774 60.085190 58.573830 57.072994 55.582989 54.104126 52.636721 51.181092 49.737564 48.306466 46.888131 45.482897 44.091105 42.713103 41.349242 39.999876 38.665367 37.346078 36.042379
470.248643 469.317866 468.384176 467.447562 466.508013 465.565517 464.620063 463.671641 462.720239 461.765845 460.808449 459.848040 458.884605 457.918134 456.948615 455.976037 455.000388 454.021657 453.039833 452.054903 451.066857 450.075684 449.081370 448.083906 447.083279 446.079477 445.072490 444.062305 443.048910 442.032295 441.012448 439.989356 438.963008 437.933393 436.900498 435.864312 434.824823 433.782020 432.735890 431.686422 430.633604 429.577424 428.517870 427.454931 426.388595 425.318851 424.245685 423.169087 422.089044 421.005546 419.918579 418.828133 417.734195 416.636754 415.535798 414.431315 413.323294 412.211723 411.096590 409.977883 408.855591 407.729702 406.600205 405.467087 404.330338 403.189946 402.045899 400.898185 399.746794 398.591714 397.432934 396.270441 395.104226 393.934276 392.760580 391.583128 390.401908 389.216908 388.028119 386.835529 385.639127 384.438902 383.234843 382.026941 380.815183 379.599560 378.380061 377.156676 375.929394 374.698205 373.463099 372.224065 370.981094 369.734176 368.483301 367.228460 365.969642 364.706838 363.440039 362.169236 360.894419 359.615579 358.332708 357.045797 355.754837 354.459819 353.160736 351.857579 350.550340 349.239011 347.923584 346.604052 345.280408 343.952644 342.620753 341.284728 339.944564 338.600252 337.251787 335.899164 334.542375 333.181416 331.816280 330.446964 329.073461 327.695768 326.313879 324.927791 323.537500 322.143002 320.744293 319.341371 317.934232 316.522874 315.107296 313.687494 312.263468 310.835216 309.402737 307.966031 306.525098 305.079937 303.630549 302.176935 300.719096 299.257034 297.790751 296.320249 294.845532 293.366602 291.883464 290.396121 288.904579 287.408842 285.908916 284.404808 282.896524 281.384070 279.867456 278.346689 276.821778 275.292733 273.759563 272.222278 270.680891 269.135413 267.585856 266.032233 264.474559 262.912847 261.347112 259.777371 258.203641 256.625937 255.044278 253.458684 251.869173 250.275767 248.678485 247.077351 245.472387 243.863616 242.251064 240.634756 239.014719 237.390979 235.763566 234.132508 232.497836 230.859582 229.217777 227.572456 225.923652 224.271402 222.615742 220.956710 219.294346 217.628690 215.959783 214.287668 212.612389 210.933991 209.252522 207.568029 205.880561 204.190170 202.496908 200.800827 199.101984 197.400436 195.696239 193.989454 192.280142 190.568367 188.854192 187.137684 185.418912 183.697944 181.974852 180.249709 178.522591 176.793575 175.062739 173.330164 171.595933 169.860131 168.122845 166.384163 164.644176 162.902978 161.160664 159.417332 157.673081 155.928013 154.182233 152.435847 150.688965 148.941698 147.194161 145.446469 143.698742 141.951103 140.203674 138.456584 136.709962 134.963940 133.218655 131.474244 129.730848 127.988612 126.247681 124.508208 122.770343 121.034245 119.300071 117.567984 115.838151 114.110740 112.385923 110.663876 108.944779 107.228813 105.516165 103.807023 102.101582 100.400038 98.702592 97.009446 95.320810 93.636895 91.957915 90.284091 88.615646 86.952806 85.295803 83.644871 82.000251 80.362184 78.730920 77.106708 75.489805 73.880471 72.278970 70.685571 69.100546 67.524173 65.956733 64.398512 62.849800 61.310894 59.782091 58.263696 56.756017 55.259367 53.774064 52.300429 50.838790 49.389477 47.952827 46.529179 45.118879 43.722276 42.339724 40.971582 39.618214 38.279988 36.957275
472.630376 471.701406 470.769515 469.834693 468.896928 467.956210 467.012527 466.065867 465.116219 464.163573 463.207915 462.249236 461.287523 460.322766 459.354952 458.384070 457.410108 456.433056 455.452900 454.469630 453.483235 452.493701 451.501018 450.505174 449.506157 448.503955 447.498557 446.489951 445.478124 444.463066 443.444764 442.423206 441.398381 440.370276 439.338880 438.304180 437.266166 436.224824 435.180143 434.132111 433.080715 432.025945 430.967787 429.906231 428.841263 427.772872 426.701046 425.625773 424.547041 423.464837 422.379150 421.289969 420.197279 419.101071 418.001332 416.898049 415.791211 414.680806 413.566822 412.449247 411.328069 410.203276 409.074857 407.942799 406.807090 405.667720 404.524675 403.377944 402.227516 401.073379 399.915521 398.753930 397.588595 396.419505 395.246647 394.070011 392.889584 391.705356 390.517315 389.325450 388.129749 386.930202 385.726798 384.519525 383.308372 382.093328 380.874383 379.651526 378.424746 377.194032 375.959374 374.720762 373.478185 372.231632 370.981094 369.726561 368.468022 367.205468 365.938889 364.668275 363.393617 362.114905 360.832130 359.545282 358.254354 356.959335 355.660217 354.356991 353.049650 351.738184 350.422585 349.102846 347.778958 346.450914 345.118706 343.782327 342.441770 341.097028 339.748094 338.394962 337.037625 335.676076 334.310311 332.940324 331.566108 330.187659 328.804972 327.418042 326.026865 324.631436 323.231751 321.827807 320.419601 319.007128 317.590388 316.169376 314.744090 313.314530 311.880693 310.442579 309.000186 307.553513 306.102561 304.647331 303.187821 301.724035 300.255972 298.783636 297.307027 295.826149 294.341005 292.851598 291.357932 289.860013 288.357844 286.851432 285.340781 283.825900 282.306794 280.783471 279.255939 277.724208 276.188285 274.648181 273.103907 271.555473 270.002891 268.446174 266.885333 265.320384 263.751339 262.178215 260.601027 259.019791 257.434524 255.845245 254.251972 252.654725 251.053524 249.448390 247.839345 246.226412 244.609616 242.988979 241.364529 239.736292 238.104295 236.468566 234.829135 233.186033 231.539291 229.888941 228.235018 226.577556 224.916590 223.252159 221.584299 219.913051 218.238456 216.560554 214.879389 213.195006 211.507450 209.816769 208.123010 206.426224 204.726461 203.023775 201.318220 199.609852 197.898727 196.184904 194.468444 192.749409 191.027862 189.303869 187.577496 185.848813 184.117891 182.384800 180.649616 178.912414 177.173274 175.432273 173.689495 171.945023 170.198943 168.451344 166.702314 164.951948 163.200338 161.447581 159.693778 157.939028 156.183436 154.427107 152.670150 150.912675 149.154796 147.396629 145.638293 143.879907 142.121597 140.363488 138.605709 136.848393 135.091675 133.335691 131.580583 129.826493 128.073570 126.321961 124.571820 122.823302 121.076566 119.331775 117.589094 115.848692 114.110740 112.375414 110.642894 108.913360 107.187001 105.464004 103.744563 102.028875 100.317139 98.609562 96.906350 95.207715 93.513873 91.825043 90.141450 88.463320 86.790886 85.124383 83.464051 81.810134 80.162881 78.522542 76.889376 75.263644 73.645610 72.035544 70.433721 68.840419 67.255921 65.680514 64.114492 62.558149 61.011788 59.475714 57.950237 56.435674 54.932342 53.440567 51.960677 50.493007 49.037894 47.595682 46.166719 44.751357 43.349953 41.962869 40.590473 39.233134 37.891230
475.021955 474.094830 473.164779 472.231789 471.295850 470.356950 469.415077 468.470221 467.522369 466.571510 465.617633 464.660726 463.700778 462.737776 461.771710 460.802567 459.830335 458.855004 457.876561 456.894994 455.910292 454.922443 453.931434 452.937255 451.939893 450.939336 449.935572 448.928590 447.918377 446.904921 445.888210 444.868232 443.844976 442.818428 441.788577 440.755412 439.718918 438.679086 437.635901 436.589353 435.539429 434.486116 433.429403 432.369278 431.305728 430.238740 429.168304 428.094405 427.017033 425.936175 424.851819 423.763953 422.672563 421.577639 420.479167 419.377136 418.271534 417.162348 416.049565 414.933175 413.813164 412.689520 411.562232 410.431287 409.296674 408.158379 407.016391 405.870698 404.721288 403.568149 402.411268 401.250635 400.086237 398.918062 397.746099 396.570335 395.390759 394.207359 393.020124 391.829042 390.634102 389.435291 388.232598 387.026013 385.815524 384.601119 383.382787 382.160518 380.934300 379.704122 378.469973 377.231842 375.989720 374.743594 373.493455 372.239292 370.981094 369.718852 368.452555 367.182193 365.907757 364.629235 363.346620 362.059900 360.769067 359.474111 358.175022 356.871793 355.564414 354.252876 352.937171 351.617289 350.293224 348.964966 347.632507 346.295840 344.954958 343.609852 342.260516 340.906942 339.549124 338.187054 336.820728 335.450137 334.075277 332.696141 331.312724 329.925021 328.533027 327.136736 325.736145 324.331249 322.922044 321.508527 320.090694 318.668542 317.242068 315.811271 314.376146 312.936694 311.492912 310.044800 308.592356 307.135580 305.674472 304.209032 302.739262 301.265162 299.786734 298.303980 296.816902 295.325503 293.829787 292.329757 290.825418 289.316773 287.803830 286.286592 284.765067 283.239261 281.709181 280.174836 278.636234 277.093384 275.546296 273.994979 272.439445 270.879704 269.315771 267.747656 266.175374 264.598939 263.018365 261.433669 259.844866 258.251974 256.655010 255.053994 253.448944 251.839882 250.226828 248.609804 246.988833 245.363939 243.735146 242.102481 240.465969 238.825639 237.181518 235.533637 233.882026 232.226716 230.567740 228.905133 227.238929 225.569164 223.895875 222.219101 220.538882 218.855258 217.168272 215.477966 213.784387 212.087579 210.387590 208.684470 206.978268 205.269037 203.556829 201.841698 200.123703 198.402899 196.679347 194.953107 193.224243 191.492818 189.758898 188.022552 186.283849 184.542860 182.799659 181.054321 179.306922 177.557541 175.806260 174.053162 172.298331 170.541855 168.783822 167.024325 165.263456 163.501312 161.737990 159.973592 158.208219 156.441977 154.674973 152.907318 151.139123 149.370505 147.601580 145.832469 144.063296 142.294185 140.525265 138.756668 136.988527 135.220980 133.454167 131.688230 129.923316 128.159573 126.397154 124.636214 122.876912 121.119408 119.363869 117.610463 115.859362 114.110740 112.364777 110.621654 108.881558 107.144678 105.411206 103.681341 101.955282 100.233233 98.515404 96.802005 95.093253 93.389368 91.690574 89.997098 88.309174 86.627037 84.950928 83.281091 81.617775 79.961235 78.311727 76.669513 75.034860 73.408038 71.789324 70.178996 68.577340 66.984644 65.401202 63.827312 62.263278 60.709406 59.166009 57.633405 56.111914 54.601864 53.103586 51.617416 50.143695 48.682770 47.234989 45.800710 44.380291 42.974099 41.582503 40.205879 38.844604
477.423395 476.498157 475.569985 474.638868 473.704795 472.767754 471.827733 470.884722 469.938707 468.989678 468.037624 467.082531 466.124389 465.163186 464.198909 463.231548 462.261090 461.287523 460.310836 459.331016 458.348052 457.361931 456.372642 455.380172 454.384510 453.385643 452.383559 451.378246 450.369692 449.357884 448.342811 447.324460 446.302819 445.277876 444.249618 443.218033 442.183109 441.144833 440.103193 439.058178 438.009773 436.957967 435.902748 434.844103 433.782020 432.716486 431.647488 430.575015 429.499054 428.419592 427.336618 426.250117 425.160079 424.066491 422.969339 421.868612 420.764298 419.656383 418.544855 417.429702 416.310912 415.188471 414.062369 412.932591 411.799127 410.661962 409.521086 408.376486 407.228149 406.076064 404.920218 403.760598 402.597193 401.429991 400.258978 399.084145 397.905477 396.722964 395.536592 394.346351 393.152229 391.954213 390.752292 389.546455 388.336688 387.122982 385.905324 384.683703 383.458107 382.228525 380.994947 379.757360 378.515753 377.270116 376.020438 374.766707 373.508913 372.247046 370.981094 369.711048 368.436896 367.158630 365.876237 364.589710 363.299036 362.004208 360.705215 359.402047 358.094696 356.783152 355.467406 354.147449 352.823272 351.494866 350.162224 348.825337 347.484197 346.138795 344.789124 343.435177 342.076946 340.714424 339.347604 337.976479 336.601044 335.221290 333.837213 332.448807 331.056065 329.658984 328.257557 326.851779 325.441647 324.027156 322.608302 321.185082 319.757491 318.325527 316.889187 315.448469 314.003371 312.553890 311.100026 309.641777 308.179143 306.712124 305.240719 303.764929 302.284755 300.800198 299.311260 297.817942 296.320249 294.818182 293.311746 291.800944 290.285780 288.766261 287.242390 285.714175 284.181622 282.644737 281.103530 279.558007 278.008178 276.454052 274.895640 273.332951 271.765998 270.194792 268.619346 267.039674 265.455788 263.867705 262.275440 260.679008 259.078427 257.473715 255.864890 254.251972 252.634981 251.013938 249.388865 247.759785 246.126722 244.489700 242.848745 241.203884 239.555144 237.902554 236.246144 234.585944 232.921985 231.254302 229.582928 227.907897 226.229247 224.547015 222.861239 221.171959 219.479217 217.783054 216.083516 214.380646 212.674492 210.965101 209.252522 207.536806 205.818006 204.096175 202.371368 200.643642 198.913056 197.179669 195.443544 193.704743 191.963331 190.219376 188.472945 186.724110 184.972943 183.219517 181.463909 179.706196 177.946459 176.184780 174.421243 172.655933 170.888939 169.120352 167.350264 165.578770 163.805967 162.031955 160.256835 158.480712 156.703693 154.925886 153.147404 151.368360 149.588872 147.809059 146.029043 144.248949 142.468906 140.689043 138.909494 137.130395 135.351886 133.574110 131.797211 130.021337 128.246642 126.473279 124.701406 122.931185 121.162780 119.396361 117.632097 115.870164 114.110740 112.354008 110.600152 108.849363 107.101834 105.357760 103.617344 101.880788 100.148301 98.420097 96.696390 94.977401 93.263354 91.554478 89.851006 88.153174 86.461223 84.775399 83.095951 81.423134 79.757206 78.098430 76.447073 74.803408 73.167710 71.540262 69.921349 68.311260 66.710293 65.118746 63.536924 61.965136 60.403697 58.852926 57.313147 55.784689 54.267885 52.763073 51.270598 49.790809 48.324057 46.870702 45.431107 44.005641 42.594676 41.198590 39.817767
479.834716 478.911404 477.985153 477.055949 476.123783 475.188642 474.250514 473.309389 472.365253 471.418096 470.467906 469.514670 468.558377 467.599015 466.636572 465.671036 464.702394 463.730636 462.755748 461.777720 460.796537 459.812190 458.824664 457.833949 456.840031 455.842900 454.842541 453.838943 452.832094 451.821981 450.808592 449.791915 448.771937 447.748645 446.722027 445.692071 444.658764 443.622093 442.582047 441.538612 440.491776 439.441526 438.387850 437.330735 436.270169 435.206138 434.138630 433.067633 431.993134 430.915120 429.833578 428.748495 427.659860 426.567660 425.471880 424.372510 423.269536 422.162946 421.052726 419.938865 418.821349 417.700166 416.575303 415.446747 414.314487 413.178508 412.038799 410.895348 409.748140 408.597165 407.442409 406.283860 405.121505 403.955332 402.785329 401.611483 400.433781 399.252212 398.066764 396.877423 395.684178 394.487016 393.285927 392.080896 390.871913 389.658966 388.442042 387.221130 385.996218 384.767294 383.534347 382.297365 381.056337 379.811251 378.562096 377.308861 376.051535 374.790106 373.524563 372.254896 370.981094 369.703147 368.421043 367.134772 365.844324 364.549689 363.250857 361.947817 360.640560 359.329076 358.013356 356.693390 355.369169 354.040684 352.707926 351.370886 350.029556 348.683927 347.333991 345.979739 344.621165 343.258260 341.891016 340.519427 339.143486 337.763185 336.378519 334.989480 333.596062 332.198261 330.796069 329.389482 327.978494 326.563101 325.143298 323.719081 322.290446 320.857389 319.419906 317.977995 316.531654 315.080879 313.625668 312.166020 310.701934 309.233408 307.760443 306.283037 304.801191 303.314905 301.824181 300.329020 298.829425 297.325396 295.816938 294.304052 292.786744 291.265018 289.738877 288.208328 286.673376 285.134028 283.590290 282.042171 280.489677 278.932817 277.371602 275.806041 274.236143 272.661921 271.083387 269.500552 267.913430 266.322036 264.726382 263.126486 261.522363 259.914029 258.301504 256.684804 255.063951 253.438963 251.809862 250.176669 248.539409 246.898104 245.252779 243.603460 241.950173 240.292946 238.631809 236.966790 235.297920 233.625232 231.948757 230.268532 228.584590 226.896968 225.205704 223.510837 221.812406 220.110454 218.405024 216.696158 214.983904 213.268306 211.549415 209.827279 208.101950 206.373480 204.641924 202.907337 201.169777 199.429303 197.685975 195.939855 194.191009 192.439500 190.685398 188.928771 187.169690 185.408229 183.644463 181.878469 180.110325 178.340113 176.567915 174.793817 173.017907 171.240273 169.461007 167.680204 165.897958 164.114370 162.329540 160.543571 158.756569 156.968643 155.179903 153.390462 151.600437 149.809946 148.019112 146.228057 144.436909 142.645798 140.854857 139.064221 137.274029 135.484423 133.695547 131.907549 130.120580 128.334795 126.550351 124.767410 122.986134 121.206693 119.429256 117.653999 115.881100 114.110740 112.343105 110.578384 108.816770 107.058460 105.303654 103.552557 101.805376 100.062325 98.323620 96.589480 94.860132 93.135803 91.416727 89.703141 87.995286 86.293409 84.597760 82.908594 81.226170 79.550752 77.882609 76.222013 74.569242 72.924579 71.288311 69.660729 68.042131 66.432817 64.833094 63.243274 61.663672 60.094610 58.536413 56.989413 55.453946 53.930352 52.418978 50.920175 49.434298 47.961710 46.502777 45.057869 43.627364 42.211643 40.811092
482.255935 481.334590 480.410299 479.483050 478.552831 477.619632 476.683439 475.744241 474.802027 473.856784 472.908500 471.957163 471.002762 470.045284 469.084717 468.121050 467.154269 466.184362 465.211319 464.235125 463.255770 462.273240 461.287523 460.298608 459.306481 458.311130 457.312542 456.310706 455.305609 454.297237 453.285579 452.270622 451.252354 450.230761 449.205831 448.177552 447.145911 446.110894 445.072490 444.030685 442.985467 441.936822 440.884739 439.829204 438.770205 437.707728 436.641761 435.572290 434.499304 433.422788 432.342731 431.259119 430.171939 429.081179 427.986825 426.888864 425.787284 424.682072 423.573214 422.460698 421.344511 420.224640 419.101071 417.973793 416.842792 415.708055 414.569569 413.427322 412.281300 411.131492 409.977883 408.820461 407.659214 406.494129 405.325192 404.152392 402.975716 401.795150 400.610683 399.422301 398.229993 397.033746 395.833547 394.629385 393.421246 392.209118 390.992990 389.772848 388.548682 387.320478 386.088225 384.851911 383.611524 382.367053 381.118485 379.865809 378.609013 377.348087 376.083018 374.813795 373.540408 372.262844 370.981094 369.695146 368.404990 367.110614 365.812009 364.509164 363.202069 361.890713 360.575086 359.255179 357.930983 356.602486 355.269681 353.932557 352.591106 351.245319 349.895187 348.540701 347.181853 345.818635 344.451039 343.079056 341.702681 340.321904 338.936719 337.547119 336.153098 334.754648 333.351764 331.944439 330.532669 329.116447 327.695768 326.270628 324.841021 323.406945 321.968393 320.525364 319.077853 317.625858 316.169376 314.708404 313.242940 311.772983 310.298532 308.819585 307.336143 305.848205 304.355771 302.858842 301.357420 299.851506 298.341101 296.826210 295.306833 293.782976 292.254642 290.721836 289.184562 287.642827 286.096636 284.545995 282.990914 281.431398 279.867456 278.299099 276.726334 275.149173 273.567627 271.981707 270.391425 268.796795 267.197831 265.594546 263.986957 262.375078 260.758928 259.138523 257.513883 255.885026 254.251972 252.614743 250.973360 249.327847 247.678226 246.024524 244.366764 242.704975 241.039184 239.369419 237.695711 236.018090 234.336589 232.651240 230.962077 229.269137 227.572456 225.872071 224.168023 222.460350 220.749096 219.034303 217.316016 215.594280 213.869143 212.140652 210.408860 208.673816 206.935574 205.194190 203.449718 201.702218 199.951748 198.198370 196.442147 194.683144 192.921426 191.157064 189.390126 187.620684 185.848813 184.074589 182.298090 180.519395 178.738586 176.955749 175.170968 173.384332 171.595933 169.805863 168.014217 166.221093 164.426591 162.630813 160.833864 159.035852 157.236886 155.437080 153.636547 151.835407 150.033779 148.231787 146.429558 144.627219 142.824904 141.022747 139.220886 137.419462 135.618620 133.818505 132.019270 130.221067 128.424054 126.628391 124.834241 123.041772 121.251155 119.462563 117.676175 115.892173 114.110740 112.332066 110.556344 108.783771 107.014547 105.248875 103.486965 101.729030 99.975285 98.225951 96.481253 94.741421 93.006687 91.277290 89.553471 87.835478 86.123560 84.417974 82.718980 81.026843 79.341831 77.664220 75.994287 74.332316 72.678597 71.033421 69.397088 67.769899 66.152164 64.544195 62.946311 61.358833 59.782091 58.216417 56.662150 55.119633 53.589215 52.071249 50.566095 49.074116 47.595682 46.131168 44.680952 43.245420 41.824963
484.687068 483.767731 482.845441 481.920187 480.991958 480.060742 479.126525 478.189297 477.249046 476.305759 475.359425 474.410030 473.457564 472.502013 471.543366 470.581611 469.616734 468.648724 467.677569 466.703255 465.725771 464.745104 463.761242 462.774171 461.783881 460.790356 459.793587 458.793558 457.790259 456.783676 455.773796 454.760607 453.744096 452.724251 451.701057 450.674503 449.644575 448.611261 447.574548 446.534423 445.490872 444.443883 443.393443 442.339538 441.282156 440.221284 439.156909 438.089016 437.017595 435.942630 434.864109 433.782020 432.696348 431.607081 430.514205 429.417708 428.317575 427.213795 426.106353 424.995237 423.880433 422.761929 421.639710 420.513765 419.384079 418.250639 417.113433 415.972447 414.827668 413.679083 412.526679 411.370443 410.210362 409.046422 407.878611 406.706915 405.531323 404.351820 403.168394 401.981032 400.789721 399.594448 398.395201 397.191967 395.984734 394.773487 393.558216 392.338907 391.115549 389.888128 388.656632 387.421049 386.181367 384.937573 383.689656 382.437604 381.181404 379.921045 378.656514 377.387801 376.114894 374.837781 373.556451 372.270892 370.981094 369.687045 368.388735 367.086152 365.779285 364.468125 363.152661 361.832882 360.508778 359.180340 357.847556 356.510419 355.168917 353.823042 352.472784 351.118134 349.759083 348.395624 347.027746 345.655442 344.278704 342.897523 341.511892 340.121804 338.727251 337.328227 335.924723 334.516735 333.104255 331.687278 330.265798 328.839809 327.409306 325.974284 324.534739 323.090667 321.642062 320.188922 318.731244 317.269023 315.802258 314.330947 312.855086 311.374676 309.889714 308.400199 306.906133 305.407513 303.904342 302.396619 300.884346 299.367525 297.846159 296.320249 294.789799 293.254814 291.715296 290.171251 288.622685 287.069603 285.512011 283.949916 282.383327 280.812252 279.236698 277.656676 276.072197 274.483269 272.889906 271.292119 269.689922 268.083327 266.472349 264.857004 263.237307 261.613275 259.984925 258.352276 256.715347 255.074158 253.428730 251.779084 250.125245 248.467235 246.805079 245.138803 243.468434 241.793999 240.115527 238.433048 236.746593 235.056194 233.361885 231.663700 229.961674 228.255844 226.546249 224.832928 223.115921 221.395271 219.671020 217.943215 216.211900 214.477123 212.738934 210.997383 209.252522 207.504404 205.753086 203.998623 202.241075 200.480501 198.716963 196.950525 195.181253 193.409213 191.634475 189.857110 188.077191 186.294792 184.509990 182.722865 180.933497 179.141969 177.348367 175.552778 173.755292 171.956000 170.154997 168.352379 166.548246 164.742699 162.935842 161.127781 159.318624 157.508485 155.697477 153.885716 152.073324 150.260421 148.447135 146.633591 144.819923 143.006264 141.192751 139.379525 137.566729 135.754509 133.943015 132.132401 130.322822 128.514439 126.707414 124.901915 123.098112 121.296178 119.496291 117.698631 115.903385 114.110740 112.320889 110.534028 108.750358 106.970083 105.193411 103.420555 101.651731 99.887161 98.127069 96.371684 94.621241 92.875978 91.136136 89.401964 87.673712 85.951638 84.236001 82.527068 80.825109 79.130398 77.443216 75.763847 74.092582 72.429714 70.775542 69.130373 67.494515 65.868283 64.251996 62.645980 61.050565 59.466086 57.892884 56.331304 54.781698 53.244421 51.719836 50.208310 48.710214 47.225926 45.755829 44.300312 42.859768
487.128133 486.210843 485.290596 484.367380 483.441181 482.511989 481.579791 480.644576 479.706330 478.765042 477.820699 476.873290 475.922802 474.969222 474.012539 473.052739 472.089811 471.123742 470.154520 469.182131 468.206563 467.227805 466.245842 465.260662 464.272254 463.280603 462.285697 461.287523 460.286069 459.281322 458.273268 457.261895 456.247189 455.229138 454.207729 453.182949 452.154785 451.123222 450.088250 449.049853 448.008020 446.962736 445.913990 444.861766 443.806053 442.746837 441.684104 440.617842 439.548037 438.474675 437.397744 436.317229 435.233118 434.145398 433.054054 431.959073 430.860443 429.758149 428.652178 427.542516 426.429151 425.312069 424.191256 423.066699 421.938385 420.806299 419.670429 418.530762 417.387283 416.239980 415.088838 413.933846 412.774988 411.612253 410.445626 409.275095 408.100646 406.922265 405.739940 404.553658 403.363405 402.169168 400.970934 399.768691 398.562424 397.352121 396.137770 394.919356 393.696868 392.470293 391.239618 390.004830 388.765916 387.522865 386.275664 385.024300 383.768761 382.509034 381.245109 379.976971 378.704611 377.428015 376.147172 374.862069 373.572697 372.279042 370.981094 369.678842 368.372273 367.061378 365.746144 364.426563 363.102622 361.774311 360.441620 359.104538 357.763057 356.417164 355.066852 353.712110 352.352929 350.989299 349.621212 348.248659 346.871631 345.490119 344.104116 342.713613 341.318603 339.919077 338.515029 337.106452 335.693338 334.275680 332.853474 331.426711 329.995387 328.559497 327.119034 325.673994 324.224372 322.770164 321.311366 319.847974 318.379985 316.907396 315.430204 313.948407 312.462003 310.970991 309.475370 307.975138 306.470295 304.960843 303.446781 301.928110 300.404831 298.876948 297.344462 295.807376 294.265694 292.719420 291.168557 289.613112 288.053090 286.488497 284.919340 283.345626 281.767364 280.184561 278.597227 277.005373 275.409008 273.808144 272.202793 270.592967 268.978681 267.359948 265.736783 264.109203 262.477223 260.840861 259.200135 257.555065 255.905670 254.251972 252.593992 250.931753 249.265278 247.594592 245.919722 244.240694 242.557535 240.870274 239.178942 237.483570 235.784189 234.080833 232.373537 230.662337 228.947269 227.228372 225.505685 223.779250 222.049109 220.315304 218.577883 216.836890 215.092374 213.344384 211.592972 209.838189 208.080090 206.318731 204.554169 202.786464 201.015675 199.241866 197.465100 195.685444 193.902967 192.117737 190.329827 188.539310 186.746262 184.950761 183.152888 181.352723 179.550351 177.745858 175.939334 174.130868 172.320555 170.508489 168.694768 166.879494 165.062768 163.244697 161.425388 159.604952 157.783502 155.961154 154.138028 152.314244 150.489927 148.665204 146.840206 145.015067 143.189922 141.364910 139.540175 137.715863 135.892122 134.069105 132.246967 130.425869 128.605971 126.787441 124.970449 123.155167 121.341772 119.530446 117.721372 115.914739 114.110740 112.309570 110.511430 108.716523 106.925058 105.137248 103.353309 101.573462 99.797933 98.026950 96.260748 94.499565 92.743644 90.993234 89.248585 87.509955 85.777605 84.051802 82.332817 80.620926 78.916409 77.219552 75.530647 73.849989 72.177879 70.514623 68.860533 67.215924 65.581118 63.956442 62.342228 60.738813 59.146541 57.565759 55.996821 54.440086 52.895918 51.364687 49.846767 48.342541 46.852393 45.376715 43.915905
489.579145 488.663945 487.745782 486.824644 485.900518 484.973393 484.043255 483.110094 482.173896 481.234650 480.292342 479.346962 478.398495 477.446930 476.492254 475.534455 474.573520 473.609436 472.642192 471.671773 470.698167 469.721362 468.741345 467.758103 466.771622 465.781891 464.788896 463.792624 462.793063 461.790198 460.784018 459.774508 458.761657 457.745450 456.725874 455.702917 454.676564 453.646803 452.613621 451.577003 450.536938 449.493410 448.446408 447.395916 446.341923 445.284414 444.223377 443.158796 442.090660 441.018954 439.943665 438.864779 437.782282 436.696162 435.606404 434.512995 433.415920 432.315167 431.210722 430.102571 428.990700 427.875096 426.755745 425.632633 424.505746 423.375072 422.240596 421.102304 419.960183 418.814219 417.664399 416.510708 415.353134 414.191662 413.026279 411.856972 410.683726 409.506529 408.325366 407.140224 405.951090 404.757951 403.560792 402.359600 401.154363 399.945067 398.731698 397.514243 396.292689 395.067024 393.837233 392.603305 391.365225 390.122981 388.876561 387.625951 386.371138 385.112111 383.848856 382.581361 381.309614 380.033602 378.753314 377.468736 376.179857 374.886666 373.589149 372.287296 370.981094 369.670533 368.355601 367.036287 365.712579 364.384466 363.051938 361.714985 360.373594 359.027757 357.677463 356.322701 354.963461 353.599735 352.231512 350.858783 349.481539 348.099770 346.713469 345.322626 343.927232 342.527281 341.122763 339.713672 338.299999 336.881737 335.458880 334.031421 332.599353 331.162670 329.721367 328.275437 326.824875 325.369677 323.909837 322.445352 320.976217 319.502429 318.023984 316.540880 315.053114 313.560683 312.063586 310.561821 309.055387 307.544285 306.028513 304.508072 302.982963 301.453186 299.918744 298.379639 296.835873 295.287449 293.734372 292.176646 290.614275 289.047264 287.475620 285.899349 284.318458 282.732956 281.142850 279.548149 277.948864 276.345004 274.736580 273.123606 271.506092 269.884052 268.257501 266.626453 264.990924 263.350930 261.706489 260.057618 258.404337 256.746665 255.084624 253.418236 251.747522 250.072506 248.393214 246.709671 245.021904 243.329940 241.633809 239.933540 238.229165 236.520716 234.808227 233.091732 231.371267 229.646869 227.918578 226.186432 224.450473 222.710744 220.967288 219.220151 217.469380 215.715023 213.957129 212.195751 210.430941 208.662754 206.891247 205.116476 203.338502 201.557386 199.773192 197.985983 196.195828 194.402795 192.606955 190.808380 189.007144 187.203326 185.397002 183.588255 181.777167 179.963824 178.148313 176.330724 174.511148 172.689681 170.866419 169.041462 167.214912 165.386872 163.557450 161.726755 159.894901 158.062001 156.228174 154.393540 152.558223 150.722349 148.886048 147.049452 145.212696 143.375920 141.539265 139.702876 137.866901 136.031493 134.196805 132.362998 130.530232 128.698673 126.868491 125.039858 123.212950 121.387948 119.565036 117.744402 115.926238 114.110740 112.298107 110.488544 108.682258 106.879463 105.080374 103.285213 101.494205 99.707580 97.925571 96.148418 94.376364 92.609657 90.848550 89.093300 87.344168 85.601423 83.865336 82.136184 80.414249 78.699817 76.993181 75.294637 73.604489 71.923043 70.250612 68.587513 66.934072 65.290615 63.657477 62.034998 60.423522 58.823400 57.234988 55.658646 54.094743 52.543651 51.005747 49.481416 47.971047 46.475035 44.993779
492.040122 491.127053 490.211015 489.291997 488.369986 487.444969 486.516935 485.585870 484.651763 483.714602 482.774373 481.831064 480.884663 479.935157 478.982533 478.026778 477.067881 476.105828 475.140606 474.172202 473.200604 472.225799 471.247773 470.266514 469.282009 468.294244 467.303207 466.308885 465.311263 464.310329 463.306070 462.298473 461.287523 460.273209 459.255516 458.234430 457.209940 456.182030 455.150688 454.115900 453.077652 452.035932 450.990724 449.942017 448.889795 447.834046 446.774755 445.711909 444.645495 443.575497 442.501903 441.424699 440.343871 439.259405 438.171287 437.079503 435.984040 434.884884 433.782020 432.675434 431.565114 430.451044 429.333211 428.211601 427.086200 425.956994 424.823969 423.687111 422.546406 421.401841 420.253400 419.101071 417.944839 416.784691 415.620612 414.452589 413.280607 412.104653 410.924714 409.740774 408.552821 407.360841 406.164819 404.964743 403.760598 402.552371 401.340048 400.123616 398.903061 397.678370 396.449528 395.216524 393.979343 392.737973 391.492399 390.242609 388.988590 387.730328 386.467812 385.201027 383.929961 382.654602 381.374936 380.090951 378.802635 377.509975 376.212959 374.911575 373.605811 372.295655 370.981094 369.662118 368.338714 367.010872 365.678579 364.341825 363.000599 361.654889 360.304685 358.949977 357.590753 356.227004 354.858719 353.485888 352.108503 350.726552 349.340027 347.948919 346.553219 345.152917 343.748006 342.338477 340.924322 339.505534 338.082104 336.654025 335.221290 333.783893 332.341827 330.895085 329.443663 327.987553 326.526751 325.061252 323.591051 322.116143 320.636525 319.152194 317.663145 316.169376 314.670884 313.167667 311.659723 310.147052 308.629652 307.107522 305.580663 304.049075 302.512759 300.971716 299.425949 297.875459 296.320249 294.760323 293.195685 291.626340 290.052291 288.473546 286.890110 285.301991 283.709195 282.111731 280.509608 278.902835 277.291423 275.675381 274.054723 272.429460 270.799605 269.165172 267.526176 265.882632 264.234558 262.581968 260.924883 259.263321 257.597301 255.926844 254.251972 252.572708 250.889075 249.201098 247.508803 245.812217 244.111366 242.406281 240.696991 238.983528 237.265924 235.544212 233.818428 232.088607 230.354788 228.617008 226.875308 225.129729 223.380314 221.627107 219.870155 218.109503 216.345201 214.577300 212.805850 211.030906 209.252522 207.470755 205.685664 203.897309 202.105753 200.311058 198.513290 196.712518 194.908810 193.102238 191.292876 189.480799 187.666085 185.848813 184.029066 182.206927 180.382484 178.555823 176.727037 174.896219 173.063465 171.228872 169.392542 167.554578 165.715086 163.874175 162.031955 160.188541 158.344049 156.498599 154.652315 152.805320 150.957744 149.109718 147.261377 145.412859 143.564304 141.715857 139.867665 138.019879 136.172654 134.326147 132.480520 130.635937 128.792567 126.950583 125.110159 123.271476 121.434718 119.600071 117.767729 115.937885 114.110740 112.286497 110.465365 108.647555 106.833285 105.022775 103.216250 101.413940 99.616080 97.822909 96.034669 94.251611 92.473985 90.702052 88.936072 87.176315 85.423052 83.676561 81.937125 80.205033 78.480576 76.764053 75.055768 73.356029 71.665151 69.983453 68.311260 66.648903 64.996718 63.355046 61.724233 60.104634 58.496605 56.900512 55.316723 53.745614 52.187566 50.642965 49.112205 47.595682 46.093803
494.511078 493.600182 492.686312 491.769455 490.849601 489.926735 489.000846 488.071922 487.139949 486.204916 485.266809 484.325616 483.381324 482.433921 481.483393 480.529728 479.572913 478.612935 477.649782 476.683439 475.713894 474.741135 473.765147 472.785918 471.803435 470.817684 469.828652 468.836326 467.840692 466.841738 465.839449 464.833812 463.824814 462.812440 461.796679 460.777516 459.754937 458.728928 457.699477 456.666569 455.630191 454.590328 453.546968 452.500095 451.449697 450.395760 449.338268 448.277210 447.212570 446.144334 445.072490 443.997021 442.917916 441.835158 440.748735 439.658632 438.564836 437.467331 436.366104 435.261141 434.152427 433.039948 431.923691 430.803640 429.679782 428.552102 427.420587 426.285221 425.145991 424.002883 422.855881 421.704973 420.550144 419.391379 418.228664 417.061986 415.891330 414.716681 413.538027 412.355351 411.168641 409.977883 408.783062 407.584163 406.381174 405.174081 403.962868 402.747523 401.528031 400.304379 399.076553 397.844538 396.608322 395.367891 394.123231 392.874328 391.621169 390.363741 389.102030 387.836023 386.565707 385.291069 384.012095 382.728772 381.441089 380.149031 378.852586 377.551742 376.246486 374.936805 373.622688 372.304121 370.981094 369.653594 368.321609 366.985128 365.644139 364.298630 362.948591 361.594009 360.234875 358.871178 357.502906 356.130049 354.752598 353.370541 351.983869 350.592572 349.196641 347.796067 346.390840 344.980951 343.566391 342.147153 340.723228 339.294608 337.861286 336.423254 334.980504 333.533030 332.080826 330.623885 329.162201 327.695768 326.224581 324.748635 323.267926 321.782448 320.292198 318.797172 317.297367 315.792780 314.283409 312.769251 311.250305 309.726570 308.198044 306.664728 305.126621 303.583724 302.036038 300.483565 298.926306 297.364265 295.797445 294.225848 292.649480 291.068344 289.482448 287.891795 286.296394 284.696252 283.091375 281.481774 279.867456 278.248433 276.624714 274.996312 273.363237 271.725504 270.083126 268.436117 266.784493 265.128269 263.467464 261.802094 260.132178 258.457737 256.778791 255.095361 253.407471 251.715143 250.018402 248.317275 246.611787 244.901967 243.187844 241.469447 239.746809 238.019961 236.288938 234.553774 232.814505 231.071170 229.323807 227.572456 225.817159 224.057959 222.294901 220.528031 218.757395 216.983045 215.205028 213.423400 211.638212 209.849521 208.057384 206.261860 204.463009 202.660896 200.855583 199.047138 197.235628 195.421124 193.603699 191.783426 189.960383 188.134647 186.306299 184.475422 182.642102 180.806426 178.968484 177.128368 175.286172 173.441994 171.595933 169.748092 167.898575 166.047490 164.194947 162.341059 160.485941 158.629713 156.772496 154.914414 153.055595 151.196169 149.336270 147.476035 145.615604 143.755120 141.894730 140.034584 138.174836 136.315642 134.457163 132.599563 130.743011 128.887677 127.033737 125.181370 123.330759 121.482092 119.635560 117.791356 115.949682 114.110740 112.274738 110.441888 108.612406 106.786514 104.964436 103.146403 101.332649 99.523413 97.718938 95.919474 94.125274 92.336597 90.553705 88.776867 87.006356 85.242451 83.485435 81.735597 79.993231 78.258637 76.532119 74.813987 73.104557 71.404150 69.713093 68.031718 66.360362 64.699370 63.049089 61.409876 59.782091 58.166099 56.562274 54.970994 53.392641 51.827606 50.276285 48.739079 47.216395
496.992031 496.083349 495.171688 494.257036 493.339380 492.418708 491.495008 490.568267 489.638471 488.705609 487.769668 486.830635 485.888497 484.943241 483.994854 483.043324 482.088636 481.130779 480.169740 479.205504 478.238059 477.267392 476.293489 475.316337 474.335922 473.352233 472.365253 471.374972 470.381374 469.384447 468.384176 467.380549 466.373551 465.363169 464.349389 463.332197 462.311580 461.287523 460.260014 459.229037 458.194579 457.156626 456.115164 455.070179 454.021657 452.969584 451.913945 450.854727 449.791915 448.725495 447.655453 446.581775 445.504446 444.423453 443.338780 442.250413 441.158339 440.062542 438.963008 437.859724 436.752673 435.641843 434.527218 433.408784 432.286527 431.160432 430.030485 428.896670 427.758974 426.617383 425.471880 424.322453 423.169087 422.011766 420.850477 419.685205 418.515936 417.342655 416.165347 414.983998 413.798594 412.609121 411.415563 410.217907 409.016138 407.810242 406.600205 405.386011 404.167648 402.945101 401.718355 400.487397 399.252212 398.012787 396.769108 395.521159 394.268929 393.012402 391.751566 390.486406 389.216908 387.943060 386.664848 385.382258 384.095277 382.803892 381.508089 380.207856 378.903179 377.594046 376.280444 374.962361 373.639783 372.312698 370.981094 369.644959 368.304281 366.959048 365.609248 364.254869 362.895900 361.532329 360.164146 358.791340 357.413899 356.031812 354.645070 353.253663 351.857579 350.456809 349.051343 347.641173 346.226288 344.806680 343.382339 341.953258 340.519427 339.080840 337.637487 336.189362 334.736457 333.278765 331.816280 330.348995 328.876905 327.400002 325.918283 324.431742 322.940373 321.444174 319.943139 318.437266 316.926550 315.410990 313.890582 312.365324 310.835216 309.300256 307.760443 306.215776 304.666257 303.111886 301.552664 299.988593 298.419674 296.845912 295.267309 293.683870 292.095598 290.502499 288.904579 287.301843 285.694299 284.081955 282.464819 280.842900 279.216207 277.584751 275.948544 274.307596 272.661921 271.011533 269.356445 267.696673 266.032233 264.363141 262.689416 261.011076 259.328140 257.640630 255.948566 254.251972 252.550871 250.845287 249.135245 247.420774 245.701901 243.978654 242.251064 240.519163 238.782982 237.042556 235.297920 233.549110 231.796164 230.039121 228.278022 226.512908 224.743823 222.970811 221.193920 219.413196 217.628690 215.840452 214.048535 212.252993 210.453883 208.651262 206.845190 205.035728 203.222940 201.406890 199.587647 197.765278 195.939855 194.111452 192.280142 190.446005 188.609118 186.769564 184.927427 183.082794 181.235752 179.386392 177.534809 175.681098 173.825358 171.967689 170.108196 168.246984 166.384163 164.519844 162.654142 160.787176 158.919064 157.049931 155.179903 153.309109 151.437682 149.565759 147.693478 145.820981 143.948415 142.075929 140.203674 138.331808 136.460490 134.589884 132.720157 130.851479 128.984025 127.117974 125.253508 123.390815 121.530083 119.671509 117.815291 115.961632 114.110740 112.262826 110.418106 108.576802 106.739138 104.905344 103.075656 101.250311 99.429554 97.613634 95.802805 93.997326 92.197459 90.403474 88.615646 86.834252 85.059578 83.291913 81.531552 79.778796 78.033951 76.297327 74.569242 72.850019 71.139986 69.439475 67.748829 66.068390 64.398512 62.739550 61.091868 59.455834 57.831823 56.220217 54.621401 53.035768 51.463717 49.905653 48.361987
499.482996 498.576569 497.667160 496.754754 495.839340 494.920905 493.999436 493.074921 492.147347 491.216700 490.282969 489.346140 488.406199 487.463135 486.516935 485.567584 484.615070 483.659379 482.700499 481.738417 480.773118 479.804589 478.832818 477.857790 476.879492 475.897911 474.913033 473.924844 472.933330 471.938479 470.940276 469.938707 468.933759 467.925418 466.913669 465.898499 464.879895 463.857841 462.832323 461.803329 460.770843 459.734852 458.695341 457.652295 456.605702 455.555546 454.501813 453.444489 452.383559 451.319009 450.250824 449.178991 448.103494 447.024319 445.941452 444.854877 443.764581 442.670549 441.572765 440.471216 439.365886 438.256762 437.143828 436.027069 434.906471 433.782020 432.653699 431.521496 430.385393 429.245378 428.101436 426.953550 425.801707 424.645892 423.486090 422.322286 421.154466 419.982614 418.806717 417.626758 416.442723 415.254599 414.062369 412.866019 411.665535 410.460901 409.252104 408.039128 406.821960 405.600583 404.374985 403.145150 401.911064 400.672713 399.430081 398.183156 396.931922 395.676366 394.416473 393.152229 391.883620 390.610633 389.333252 388.051465 386.765258 385.474617 384.179528 382.879978 381.575953 380.267440 378.954427 377.636899 376.314844 374.988248 373.657100 372.321386 370.981094 369.636212 368.286726 366.932625 365.573897 364.210531 362.842513 361.469834 360.092480 358.710442 357.323708 355.932267 354.536109 353.135223 351.729599 350.319226 348.904095 347.484197 346.059521 344.630058 343.195801 341.756739 340.312865 338.864170 337.410646 335.952286 334.489083 333.021028 331.548117 330.070341 328.587695 327.100174 325.607771 324.110482 322.608302 321.101227 319.589251 318.072373 316.550589 315.023895 313.492290 311.955771 310.414338 308.867988 307.316722 305.760539 304.199440 302.633425 301.062497 299.486656 297.905906 296.320249 294.729689 293.134231 291.533879 289.928638 288.318515 286.703516 285.083649 283.458921 281.829342 280.194921 278.555668 276.911594 275.262710 273.609030 271.950567 270.287334 268.619346 266.946620 265.269173 263.587020 261.900183 260.208679 258.512529 256.811755 255.106379 253.396424 251.681916 249.962879 248.239341 246.511329 244.778873 243.042002 241.300748 239.555144 237.805224 236.051022 234.292576 232.529923 230.763103 228.992156 227.217125 225.438052 223.654984 221.867966 220.077048 218.282278 216.483709 214.681393 212.875385 211.065742 209.252522 207.435785 205.615594 203.792012 201.965105 200.134941 198.301589 196.465122 194.625614 192.783140 190.937779 189.089611 187.238719 185.385188 183.529106 181.670562 179.809648 177.946459 176.081093 174.213649 172.344230 170.472941 168.599889 166.725186 164.848945 162.971282 161.092317 159.212172 157.330972 155.448846 153.565925 151.682345 149.798243 147.913760 146.029043 144.144238 142.259498 140.374978 138.490837 136.607237 134.724345 132.842331 130.961369 129.081636 127.203316 125.326592 123.451657 121.578703 119.707930 117.839539 115.973739 114.110740 112.250758 110.394014 108.540734 106.691145 104.845485 103.003990 101.166906 99.334482 97.506972 95.684634 93.867733 92.056538 90.251324 88.452371 86.659963 84.874391 83.095951 81.324945 79.561680 77.806467 76.059626 74.321481 72.592360 70.872600 69.162543 67.462534 65.772928 64.094084 62.426367 60.770147 59.125802 57.493717 55.874279 54.267885 52.674936 51.095840 49.531012
501.983987 501.079859 500.172743 499.262626 498.349497 497.433342 496.514148 495.591902 494.666593 493.738206 492.806728 491.872147 490.934450 489.993623 489.049653 488.102527 487.152232 486.198754 485.242080 484.282197 483.319091 482.352748 481.383155 480.410299 479.434165 478.454740 477.472011 476.485963 475.496583 474.503857 473.507770 472.508310 471.505461 470.499211 469.489544 468.476447 467.459905 466.439905 465.416431 464.389471 463.359009 462.325031 461.287523 460.246471 459.201859 458.153673 457.101900 456.046523 454.987530 453.924904 452.858632 451.788698 450.715089 449.637788 448.556782 447.472056 446.383595 445.291383 444.195407 443.095651 441.992100 440.884739 439.773554 438.658529 437.539650 436.416900 435.290267 434.159733 433.025285 431.886907 430.744585 429.598302 428.448044 427.293796 426.135543 424.973270 423.806961 422.636602 421.462178 420.283672 419.101071 417.914359 416.723522 415.528543 414.329409 413.126104 411.918613 410.706921 409.491013 408.270875 407.046491 405.817846 404.584927 403.347717 402.106203 400.860369 399.610201 398.355685 397.096805 395.833547 394.565898 393.293841 392.017364 390.736452 389.451090 388.161264 386.866962 385.568167 384.264868 382.957049 381.644698 380.327800 379.006342 377.680311 376.349693 375.014475 373.674645 372.330189 370.981094 369.627348 368.268939 366.905853 365.538079 364.165604 362.788417 361.406506 360.019858 358.628464 357.232311 355.831388 354.425685 353.015190 351.599895 350.179787 348.754857 347.325095 345.890492 344.451039 343.006725 341.557543 340.103484 338.644539 337.180700 335.711961 334.238312 332.759748 331.276260 329.787844 328.294492 326.796199 325.292959 323.784767 322.271618 320.753509 319.230434 317.702391 316.169376 314.631386 313.088419 311.540474 309.987548 308.429642 306.866754 305.298884 303.726033 302.148202 300.565393 298.977608 297.384850 295.787121 294.184426 292.576769 290.964155 289.346591 287.724082 286.096636 284.464260 282.826963 281.184754 279.537642 277.885640 276.228758 274.567008 272.900403 271.228958 269.552687 267.871606 266.185731 264.495081 262.799672 261.099524 259.394659 257.685097 255.970860 254.251972 252.528458 250.800342 249.067653 247.330417 245.588663 243.842423 242.091727 240.336608 238.577100 236.813239 235.045060 233.272603 231.495907 229.715012 227.929961 226.140798 224.347568 222.550318 220.749096 218.943954 217.134942 215.322115 213.505527 211.685236 209.861300 208.033780 206.202740 204.368242 202.530355 200.689146 198.844686 196.997047 195.146305 193.292536 191.435820 189.576238 187.713874 185.848813 183.981145 182.110961 180.238353 178.363418 176.486254 174.606963 172.725649 170.842417 168.957379 167.070645 165.182332 163.292557 161.401442 159.509110 157.615690 155.721311 153.826108 151.930217 150.033779 148.136938 146.239841 144.342638 142.445485 140.548539 138.651961 136.755919 134.860579 132.966117 131.072709 129.180536 127.289783 125.400641 123.513302 121.627965 119.744831 117.864107 115.986005 114.110740 112.238532 110.369606 108.504192 106.642524 104.784841 102.931388 101.082414 99.238173 97.398923 95.564931 93.736465 91.913800 90.097217 88.287002 86.483446 84.686846 82.897503 81.115727 79.341831 77.576134 75.818963 74.070647 72.331524 70.601938 68.882236 67.172775 65.473916 63.786026 62.109478 60.444653 58.791935 57.151718 55.524400 53.910385 52.310086 50.723918
504.495020 503.593232 502.688453 501.780668 500.869866 499.956034 499.039159 498.119227 497.196226 496.270142 495.340963 494.408675 493.473266 492.534721 491.593028 490.648172 489.700142 488.748923 487.794501 486.836864 485.875997 484.911887 483.944521 482.973884 481.999962 481.022742 480.042210 479.058352 478.071154 477.080602 476.086682 475.089379 474.088680 473.084571 472.077036 471.066062 470.051635 469.033740 468.012362 466.987488 465.959102 464.927191 463.891739 462.852732 461.810155 460.763994 459.714233 458.660859 457.603856 456.543210 455.478905 454.410926 453.339260 452.263890 451.184802 450.101980 449.015411 447.925077 446.830966 445.733060 444.631346 443.525808 442.416430 441.303198 440.186096 439.065109 437.940222 436.811420 435.678686 434.542006 433.401365 432.256746 431.108136 429.955517 428.798876 427.638196 426.473462 425.304659 424.131771 422.954783 421.773680 420.588446 419.399066 418.205524 417.007805 415.805894 414.599776 413.389435 412.174855 410.956022 409.732920 408.505535 407.273850 406.037851 404.797523 403.552850 402.303818 401.050411 399.792615 398.530415 397.263795 395.992742 394.717239 393.437274 392.152830 390.863893 389.570450 388.272485 386.969984 385.662934 384.351319 383.035125 381.714340 380.388949 379.058937 377.724292 376.385000 375.041048 373.692421 372.339108 370.981094 369.618368 368.250915 366.878724 365.501783 364.120077 362.733597 361.342329 359.946261 358.545383 357.139682 355.729147 354.313768 352.893533 351.468431 350.038453 348.603588 347.163826 345.719157 344.269571 342.815060 341.355615 339.891226 338.421886 336.947586 335.468318 333.984075 332.494850 331.000635 329.501424 327.997211 326.487990 324.973756 323.454502 321.930225 320.400920 318.866584 317.327211 315.782800 314.233348 312.678852 311.119311 309.554723 307.985088 306.410405 304.830674 303.245897 301.656073 300.061206 298.461298 296.856351 295.246368 293.631355 292.011316 290.386257 288.756183 287.121101 285.481020 283.835946 282.185889 280.530859 278.870865 277.205920 275.536036 273.861224 272.181500 270.496876 268.807370 267.112997 265.413774 263.709720 262.000854 260.287196 258.568767 256.845590 255.117688 253.385085 251.647807 249.905880 248.159333 246.408194 244.652494 242.892265 241.127538 239.358348 237.584731 235.806723 234.024363 232.237690 230.446746 228.651572 226.852213 225.048715 223.241124 221.429491 219.613865 217.794298 215.970846 214.143562 212.312505 210.477735 208.639312 206.797300 204.951764 203.102772 201.250391 199.394695 197.535756 195.673649 193.808453 191.940249 190.069117 188.195144 186.318415 184.439022 182.557056 180.672612 178.785787 176.896680 175.005396 173.112039 171.216717 169.319541 167.420626 165.520088 163.618048 161.714628 159.809954 157.904157 155.997368 154.089723 152.181363 150.272429 148.363068 146.453429 144.543667 142.633937 140.724401 138.815224 136.906574 134.998623 133.091548 131.185528 129.280749 127.377400 125.475673 123.575766 121.677880 119.782221 117.889001 115.998434 114.110740 112.226144 110.344875 108.467168 106.593261 104.723400 102.857832 100.996813 99.140601 97.289463 95.443667 93.603489 91.769210 89.941117 88.119501 86.304660 84.496897 82.696522 80.903850 79.119200 77.342900 75.575282 73.816684 72.067453 70.327938 68.598496 66.879491 65.171292 63.474275 61.788822 60.115322 58.454169 56.805765 55.170518 53.548842 51.941157
507.016110 506.116705 505.214305 504.308895 503.400464 502.488998 501.574485 500.656910 499.736262 498.812527 497.885691 496.955741 496.022664 495.086447 494.147076 493.204537 492.258818 491.309904 490.357781 489.402437 488.443857 487.482027 486.516935 485.548564 484.576903 483.601937 482.623651 481.642032 480.657065 479.668737 478.677032 477.681938 476.683439 475.681521 474.676170 473.667371 472.655109 471.639371 470.620141 469.597405 468.571148 467.541355 466.508013 465.471105 464.430617 463.386534 462.338841 461.287523 460.232566 459.173954 458.111671 457.045704 455.976037 454.902654 453.825540 452.744680 451.660060 450.571662 449.479473 448.383477 447.283658 446.180000 445.072490 443.961110 442.845845 441.726681 440.603601 439.476590 438.345632 437.210712 436.071813 434.928921 433.782020 432.631093 431.476126 430.317103 429.154008 427.986825 426.815538 425.640133 424.460592 423.276901 422.089044 420.897005 419.700768 418.500319 417.295640 416.086716 414.873532 413.656073 412.434322 411.208264 409.977883 408.743164 407.504092 406.260650 405.012824 403.760598 402.503957 401.242885 399.977367 398.707389 397.432934 396.153988 394.870535 393.582561 392.290051 390.992990 389.691362 388.385155 387.074352 385.758939 384.438902 383.114226 381.784898 380.450903 379.112226 377.768855 376.420775 375.067972 373.710434 372.348145 370.981094 369.609267 368.232651 366.851232 365.464999 364.073938 362.678038 361.277286 359.871669 358.461177 357.045797 355.625518 354.200328 352.770217 351.335173 349.895187 348.450247 347.000343 345.545466 344.085606 342.620753 341.150898 339.676033 338.196149 336.711237 335.221290 333.726300 332.226260 330.721162 329.211000 327.695768 326.175460 324.650070 323.119593 321.584024 320.043359 318.497594 316.946725 315.390749 313.829665 312.263468 310.692159 309.115734 307.534195 305.947541 304.355771 302.758887 301.156891 299.549784 297.937569 296.320249 294.697828 293.070311 291.437702 289.800008 288.157234 286.509389 284.856479 283.198514 281.535503 279.867456 278.194385 276.516300 274.833214 273.145142 271.452097 269.754094 268.051150 266.343282 264.630508 262.912847 261.190318 259.462944 257.730746 255.993747 254.251972 252.505446 250.754197 248.998250 247.237637 245.472387 243.702531 241.928102 240.149136 238.365666 236.577730 234.785367 232.988616 231.187518 229.382117 227.572456 225.758582 223.940542 222.118385 220.292162 218.461927 216.627733 214.789636 212.947695 211.101970 209.252522 207.399415 205.542715 203.682490 201.818811 199.951748 198.081376 196.207772 194.331015 192.451185 190.568367 188.682645 186.794109 184.902849 183.008958 181.112532 179.213671 177.312474 175.409048 173.503497 171.595933 169.686468 167.775217 165.862299 163.947837 162.031955 160.114781 158.196447 156.277087 154.356840 152.435847 150.514254 148.592209 146.669864 144.747376 142.824904 140.902612 138.980668 137.059243 135.138512 133.218655 131.299856 129.382303 127.466189 125.551709 123.639065 121.728462 119.820111 117.914227 116.011028 114.110740 112.213591 110.319815 108.429652 106.543345 104.661144 102.783302 100.910081 99.041744 97.178561 95.320810 93.468771 91.622731 89.782983 87.949824 86.123560 84.304500 82.492960 80.689262 78.893733 77.106708 75.328527 73.559536 71.800088 70.050541 68.311260 66.582618 64.864993 63.158768 61.464335 59.782091 58.112441 56.455795 54.812570 53.183192
509.547271 508.650292 507.750313 506.847322 505.941305 505.032250 504.120142 503.204969 502.286718 501.365375 500.440927 499.513361 498.582663 497.648819 496.711815 495.771640 494.828277 493.881715 492.931939 491.978934 491.022689 490.063187 489.100416 488.134361 487.165009 486.192344 485.216354 484.237023 483.254337 482.268282 481.278844 480.286008 479.289759 478.290084 477.286967 476.280394 475.270350 474.256821 473.239791 472.219246 471.195170 470.167550 469.136370 468.101615 467.063270 466.021320 464.975749 463.926543 462.873687 461.817164 460.756960 459.693060 458.625448 457.554109 456.479027 455.400186 454.317572 453.231169 452.140961 451.046932 449.949067 448.847350 447.741766 446.632298 445.518932 444.401650 443.280438 442.155279 441.026159 439.893059 438.755966 437.614863 436.469734 435.320563 434.167334 433.010031 431.848638 430.683140 429.513520 428.339761 427.161849 425.979767 424.793500 423.603030 422.408342 421.209420 420.006249 418.798811 417.587091 416.371074 415.150742 413.926081 412.697074 411.463705 410.225959 408.983819 407.737270 406.486297 405.230882 403.971011 402.706668 401.437837 400.164503 398.886650 397.604262 396.317325 395.025823 393.729740 392.429062 391.123773 389.813858 388.499302 387.180090 385.856208 384.527640 383.194372 381.856390 380.513678 379.166224 377.814011 376.457027 375.095257 373.728687 372.357304 370.981094 369.600044 368.214140 366.823369 365.427718 364.027175 362.621726 361.211359 359.796062 358.375823 356.950630 355.520470 354.085334 352.645208 351.200083 349.749947 348.294790 346.834602 345.369372 343.899090 342.423748 340.943335 339.457843 337.967263 336.471586 334.970805 333.464912 331.953899 330.437760 328.916487 327.390074 325.858516 324.321806 322.779939 321.232911 319.680718 318.123355 316.560818 314.993106 313.420214 311.842142 310.258887 308.670449 307.076827 305.478020 303.874030 302.264857 300.650503 299.030970 297.406262 295.776381 294.141332 292.501119 290.855749 289.205227 287.549559 285.888754 284.222821 282.551767 280.875603 279.194340 277.507989 275.816562 274.120073 272.418536 270.711966 269.000379 267.283791 265.562221 263.835687 262.104210 260.367810 258.626509 256.880331 255.129300 253.373441 251.612780 249.847346 248.077167 246.302274 244.522699 242.738474 240.949633 239.156212 237.358249 235.555781 233.748849 231.937493 230.121758 228.301688 226.477328 224.648727 222.815934 220.979002 219.137981 217.292928 215.443899 213.590953 211.734150 209.873553 208.009226 206.141235 204.269649 202.394539 200.515978 198.634040 196.748804 194.860348 192.968756 191.074110 189.176499 187.276012 185.372740 183.466778 181.558224 179.647177 177.733741 175.818020 173.900124 171.980163 170.058252 168.134509 166.209054 164.282010 162.353505 160.423669 158.492636 156.560541 154.627527 152.693737 150.759317 148.824421 146.889202 144.953820 143.018436 141.083218 139.148336 137.213965 135.280283 133.347473 131.415723 129.485224 127.556172 125.628768 123.703215 121.779725 119.858511 117.939792 116.023792 114.110740 112.200869 110.294419 108.391634 106.492761 104.598057 102.707780 100.822195 98.941574 97.066191 95.196330 93.332278 91.474326 89.622776 87.777931 85.940102 84.109606 82.286766 80.471912 78.665377 76.867505 75.078642 73.299143 71.529368 69.769685 68.020467 66.282094 64.554954 62.839439 61.135950 59.444894 57.766684 56.101741 54.450492
512.088517 511.194007 510.296494 509.395964 508.492405 507.585804 506.676146 505.763419 504.847610 503.928705 503.006690 502.081552 501.153277 500.221853 499.287264 498.349497 497.408539 496.464375 495.516992 494.566375 493.612511 492.655386 491.694984 490.731293 489.764298 488.793985 487.820339 486.843345 485.862990 484.879259 483.892138 482.901611 481.907664 480.910282 479.909451 478.905156 477.897382 476.886113 475.871336 474.853035 473.831194 472.805800 471.776836 470.744288 469.708140 468.668377 467.624984 466.577945 465.527245 464.472868 463.414800 462.353023 461.287523 460.218285 459.145292 458.068528 456.987979 455.903628 454.815459 453.723457 452.627606 451.527889 450.424291 449.316796 448.205388 447.090050 445.970767 444.847523 443.720301 442.589086 441.453860 440.314609 439.171315 438.023963 436.872536 435.717018 434.557393 433.393644 432.225755 431.053710 429.877493 428.697086 427.512474 426.323641 425.130569 423.933244 422.731647 421.525764 420.315577 419.101071 417.882229 416.659034 415.431471 414.199523 412.963174 411.722408 410.477208 409.227558 407.973443 406.714845 405.451750 404.184140 402.912001 401.635315 400.354068 399.068242 397.777823 396.482795 395.183142 393.878848 392.569898 391.256276 389.937967 388.614956 387.287227 385.954765 384.617556 383.275584 381.928834 380.577292 379.220942 377.859772 376.493765 375.122908 373.747186 372.366586 370.981094 369.590696 368.195378 366.795127 365.389930 363.979773 362.564644 361.144530 359.719419 358.289297 356.854154 355.413976 353.968753 352.518472 351.063123 349.602694 348.137175 346.666555 345.190824 343.709972 342.223989 340.732865 339.236592 337.735161 336.228563 334.716790 333.199835 331.677689 330.150345 328.617797 327.080039 325.537064 323.988866 322.435441 320.876784 319.312889 317.743755 316.169376 314.589750 313.004874 311.414747 309.819366 308.218732 306.612843 305.001699 303.385302 301.763653 300.136753 298.504605 296.867212 295.224577 293.576706 291.923604 290.265275 288.601727 286.932968 285.259004 283.579845 281.895500 280.205980 278.511297 276.811461 275.106486 273.396387 271.681177 269.960872 268.235490 266.505048 264.769564 263.029058 261.283552 259.533067 257.777625 256.017252 254.251972 252.481812 250.706800 248.926965 247.142336 245.352947 243.558828 241.760016 239.956544 238.148452 236.335777 234.518559 232.696840 230.870663 229.040074 227.205118 225.365843 223.522300 221.674541 219.822618 217.966587 216.106505 214.242431 212.374426 210.502554 208.626878 206.747467 204.864389 202.977717 201.087523 199.193883 197.296877 195.396584 193.493087 191.586473 189.676828 187.764244 185.848813 183.930633 182.009800 180.086417 178.160587 176.232418 174.302020 172.369505 170.434991 168.498595 166.560441 164.620654 162.679363 160.736701 158.792802 156.847806 154.901857 152.955100 151.007685 149.059767 147.111502 145.163053 143.214585 141.266268 139.318274 137.370783 135.423975 133.478037 131.533161 129.589540 127.647376 125.706871 123.768235 121.831682 119.897430 117.965703 116.036728 114.110740 112.187976 110.268681 108.353103 106.441497 104.534122 102.631244 100.733133 98.840065 96.952323 95.070195 93.193973 91.323958 89.460456 87.603777 85.754239 83.912167 82.077891 80.251747 78.434077 76.625232 74.825567 73.035444 71.255232 69.485307 67.726051 65.977853 64.241110 62.516223 60.803602 59.103665 57.416834 55.743539
