nCols  201
nRows  44
xllcenter  -500
yllcenter -365
cellsize  5.00
nodata_value -9999.00
500.000000 500.000000 500.000000 500.000000 500.000000 456.698730 418.759616 393.816197 373.904798 356.909120 341.886117 328.317153 315.880474 304.360025 293.602326 283.493649 273.946909 264.893641 256.278848 248.057546 240.192379 232.651912 225.409396 218.441835 211.729294 205.254347 199.001661 192.957658 187.110243 181.448591 175.962965 170.644569 165.485426 160.478278 155.616493 150.893999 146.305216 141.845006 137.508621 133.291669 129.190076 125.200053 121.318075 117.540852 113.865308 110.288568 106.807935 103.420878 100.125020 96.918122 93.798080 90.762905 87.810723 84.939763 82.148352 79.434904 76.797921 74.235981 71.747738 69.331914 66.987298 64.712739 62.507143 60.369473 58.298743 56.294016 54.354401 52.479051 50.667161 48.917968 47.230743 45.604798 44.039475 42.534154 41.088244 39.701184 38.372444 37.101523 35.887945 34.731260 33.631047 32.586906 31.598463 30.665365 29.787282 28.963908 28.194956 27.480159 26.819273 26.212073 25.658351 25.157921 24.710614 24.316282 23.974791 23.686028 23.449898 23.266322 23.135239 23.056607 23.030399 23.056607 23.135239 23.266322 23.449898 23.686028 23.974791 24.316282 24.710614 25.157921 25.658351 26.212073 26.819273 27.480159 28.194956 28.963908 29.787282 30.665365 31.598463 32.586906 33.631047 34.731260 35.887945 37.101523 38.372444 39.701184 41.088244 42.534154 44.039475 45.604798 47.230743 48.917968 50.667161 52.479051 54.354401 56.294016 58.298743 60.369473 62.507143 64.712739 66.987298 69.331914 71.747738 74.235981 76.797921 79.434904 82.148352 84.939763 87.810723 90.762905 93.798080 96.918122 100.125020 103.420878 106.807935 110.288568 113.865308 117.540852 121.318075 125.200053 129.190076 133.291669 137.508621 141.845006 146.305216 150.893999 155.616493 160.478278 165.485426 170.644569 175.962965 181.448591 187.110243 192.957658 199.001661 205.254347 211.729294 218.441835 225.409396 232.651912 240.192379 248.057546 256.278848 264.893641 273.946909 283.493649 293.602326 304.360025 315.880474 328.317153 341.886117 356.909120 373.904798 393.816197 418.759616 456.698730 500.000000 500.000000 500.000000 500.000000 500.000000
500.000000 500.000000 500.000000 500.000000 500.000000 481.291713 428.760966 401.257912 380.104212 362.341001 346.784466 332.817465 320.069458 308.297105 297.330318 287.044606 277.345559 268.159538 259.427766 251.102431 243.144009 235.519377 228.200442 221.163130 214.386625 207.852777 201.545648 195.451153 189.556768 183.851301 178.324698 172.967891 167.772668 162.731561 157.837758 153.085025 148.467640 143.980338 139.618258 135.376907 131.252119 127.240024 123.337021 119.539752 115.845083 112.250081 108.751997 105.348255 102.036434 98.814257 95.679583 92.630389 89.664771 86.780930 83.977164 81.251866 78.603512 76.030661 73.531947 71.106074 68.751812 66.467994 64.253514 62.107319 60.028410 58.015837 56.068699 54.186137 52.367338 50.611527 48.917968 47.285962 45.714847 44.203993 42.752802 41.360708 40.027175 38.751694 37.533785 36.372995 35.268895 34.221082 33.229178 32.292827 31.411695 30.585471 29.813867 29.096613 28.433462 27.824185 27.268575 26.766442 26.317617 25.921947 25.579301 25.289562 25.052634 24.868439 24.736915 24.658018 24.631722 24.658018 24.736915 24.868439 25.052634 25.289562 25.579301 25.921947 26.317617 26.766442 27.268575 27.824185 28.433462 29.096613 29.813867 30.585471 31.411695 32.292827 33.229178 34.221082 35.268895 36.372995 37.533785 38.751694 40.027175 41.360708 42.752802 44.203993 45.714847 47.285962 48.917968 50.611527 52.367338 54.186137 56.068699 58.015837 60.028410 62.107319 64.253514 66.467994 68.751812 71.106074 73.531947 76.030661 78.603512 81.251866 83.977164 86.780930 89.664771 92.630389 95.679583 98.814257 102.036434 105.348255 108.751997 112.250081 115.845083 119.539752 123.337021 127.240024 131.252119 135.376907 139.618258 143.980338 148.467640 153.085025 157.837758 162.731561 167.772668 172.967891 178.324698 183.851301 189.556768 195.451153 201.545648 207.852777 214.386625 221.163130 228.200442 235.519377 243.144009 251.102431 259.427766 268.159538 277.345559 287.044606 297.330318 308.297105 320.069458 332.817465 346.784466 362.341001 380.104212 401.257912 428.760966 481.291713 500.000000 500.000000 500.000000 500.000000 500.000000
500.000000 500.000000 500.000000 500.000000 500.000000 500.000000 440.839202 409.584293 386.862915 368.185737 352.013514 337.596182 324.500712 312.450007 301.253931 290.775240 280.910977 271.581524 262.723790 254.286752 246.228449 238.513863 231.113407 224.001812 217.157288 210.560887 204.196011 198.048017 192.103914 186.352108 180.782206 175.384843 170.151550 165.074635 160.147091 155.362509 150.715016 146.199209 141.810106 137.543106 133.393944 129.358664 125.433584 121.615275 117.900537 114.286376 110.769991 107.348755 104.020203 100.782014 97.632009 94.568131 91.588443 88.691114 85.874415 83.136713 80.476461 77.892194 75.382525 72.946139 70.581789 68.288291 66.064521 63.909413 61.821954 59.801181 57.846181 55.956083 54.130064 52.367338 50.667161 49.028826 47.451660 45.935027 44.478321 43.080970 41.742431 40.462189 39.239759 38.074681 36.966524 35.914878 34.919362 33.979614 33.095299 32.266101 31.491729 30.771910 30.106395 29.494952 28.937371 28.433462 27.983051 27.585987 27.242134 26.951377 26.713617 26.528776 26.396791 26.317617 26.291229 26.317617 26.396791 26.528776 26.713617 26.951377 27.242134 27.585987 27.983051 28.433462 28.937371 29.494952 30.106395 30.771910 31.491729 32.266101 33.095299 33.979614 34.919362 35.914878 36.966524 38.074681 39.239759 40.462189 41.742431 43.080970 44.478321 45.935027 47.451660 49.028826 50.667161 52.367338 54.130064 55.956083 57.846181 59.801181 61.821954 63.909413 66.064521 68.288291 70.581789 72.946139 75.382525 77.892194 80.476461 83.136713 85.874415 88.691114 91.588443 94.568131 97.632009 100.782014 104.020203 107.348755 110.769991 114.286376 117.900537 121.615275 125.433584 129.358664 133.393944 137.543106 141.810106 146.199209 150.715016 155.362509 160.147091 165.074635 170.151550 175.384843 180.782206 186.352108 192.103914 198.048017 204.196011 210.560887 217.157288 224.001812 231.113407 238.513863 246.228449 254.286752 262.723790 271.581524 280.910977 290.775240 301.253931 312.450007 324.500712 337.596182 352.013514 368.185737 386.862915 409.584293 440.839202 500.000000 500.000000 500.000000 500.000000 500.000000 500.000000
500.000000 500.000000 500.000000 500.000000 500.000000 500.000000 456.698730 419.067930 394.288127 374.500996 357.609691 342.678673 329.193091 316.833409 305.384995 294.695348 284.651445 275.166728 266.173141 257.616007 249.450604 241.639786 234.152299 226.961541 220.044646 213.381787 206.955635 200.750940 194.754197 188.953380 183.337719 177.897532 172.624069 167.509399 162.546299 157.728178 153.048995 148.503201 144.085684 139.791727 135.616960 131.557331 127.609076 123.768688 120.032896 116.398644 112.863073 109.423503 106.077419 102.822458 99.656398 96.577145 93.582727 90.671281 87.841050 85.090371 82.417673 79.821467 77.300343 74.852967 72.478071 70.174454 67.940976 65.776555 63.680163 61.650824 59.687611 57.789643 55.956083 54.186137 52.479051 50.834106 49.250624 47.727958 46.265496 44.862658 43.518894 42.233684 41.006536 39.836985 38.724594 37.668950 36.669664 35.726374 34.838738 34.006438 33.229178 32.506685 31.838703 31.225001 30.665365 30.159602 29.707538 29.309019 28.963908 28.672089 28.433462 28.247946 28.115480 28.036018 28.009534 28.036018 28.115480 28.247946 28.433462 28.672089 28.963908 29.309019 29.707538 30.159602 30.665365 31.225001 31.838703 32.506685 33.229178 34.006438 34.838738 35.726374 36.669664 37.668950 38.724594 39.836985 41.006536 42.233684 43.518894 44.862658 46.265496 47.727958 49.250624 50.834106 52.479051 54.186137 55.956083 57.789643 59.687611 61.650824 63.680163 65.776555 67.940976 70.174454 72.478071 74.852967 77.300343 79.821467 82.417673 85.090371 87.841050 90.671281 93.582727 96.577145 99.656398 102.822458 106.077419 109.423503 112.863073 116.398644 120.032896 123.768688 127.609076 131.557331 135.616960 139.791727 144.085684 148.503201 153.048995 157.728178 162.546299 167.509399 172.624069 177.897532 183.337719 188.953380 194.754197 200.750940 206.955635 213.381787 220.044646 226.961541 234.152299 241.639786 249.450604 257.616007 266.173141 275.166728 284.651445 294.695348 305.384995 316.833409 329.193091 342.678673 357.609691 374.500996 394.288127 419.067930 456.698730 500.000000 500.000000 500.000000 500.000000 500.000000 500.000000
500.000000 500.000000 500.000000 500.000000 500.000000 500.000000 485.857864 430.178800 402.532057 381.361895 363.618183 348.095425 334.168760 321.464289 309.737024 298.816005 288.576255 278.923090 269.782711 261.096254 252.815858 244.901980 237.321489 230.046300 223.052352 216.318841 209.827637 203.562823 197.510331 191.657658 185.993631 180.508216 175.192365 170.037881 165.037316 160.183873 155.471336 150.893999 146.446609 142.124323 137.922660 133.837468 129.864890 126.001337 122.243465 118.588149 115.032469 111.573688 108.209240 104.936714 101.753845 98.658500 95.648668 92.722453 89.878067 87.113817 84.428105 81.819417 79.286321 76.827458 74.441543 72.127355 69.883737 67.709588 65.603867 63.565583 61.593796 59.687611 57.846181 56.068699 54.354401 52.702560 51.112486 49.583526 48.115059 46.706497 45.357283 44.066891 42.834822 41.660606 40.543800 39.483985 38.480770 37.533785 36.642686 35.807152 35.026882 34.301600 33.631047 33.014990 32.453211 31.945516 31.491729 31.091693 30.745272 30.452345 30.212814 30.026596 29.893629 29.813867 29.787282 29.813867 29.893629 30.026596 30.212814 30.452345 30.745272 31.091693 31.491729 31.945516 32.453211 33.014990 33.631047 34.301600 35.026882 35.807152 36.642686 37.533785 38.480770 39.483985 40.543800 41.660606 42.834822 44.066891 45.357283 46.706497 48.115059 49.583526 51.112486 52.702560 54.354401 56.068699 57.846181 59.687611 61.593796 63.565583 65.603867 67.709588 69.883737 72.127355 74.441543 76.827458 79.286321 81.819417 84.428105 87.113817 89.878067 92.722453 95.648668 98.658500 101.753845 104.936714 108.209240 111.573688 115.032469 118.588149 122.243465 126.001337 129.864890 133.837468 137.922660 142.124323 146.446609 150.893999 155.471336 160.183873 165.037316 170.037881 175.192365 180.508216 185.993631 191.657658 197.510331 203.562823 209.827637 216.318841 223.052352 230.046300 237.321489 244.901980 252.815858 261.096254 269.782711 278.923090 288.576255 298.816005 309.737024 321.464289 334.168760 348.095425 363.618183 381.361895 402.532057 430.178800 485.857864 500.000000 500.000000 500.000000 500.000000 500.000000 500.000000
500.000000 500.000000 500.000000 500.000000 500.000000 500.000000 500.000000 443.875139 411.824040 388.869446 370.096189 353.883608 339.454056 326.362446 314.325554 303.149803 292.695876 282.859492 273.560163 264.734193 256.330141 248.305741 240.625753 233.260427 226.184369 219.375696 212.815390 206.486798 200.375235 194.467678 188.752510 183.219319 177.858727 172.662254 167.622203 162.731561 157.983919 153.373400 148.894603 144.542548 140.312636 136.200605 132.202501 128.314649 124.533623 120.856228 117.279475 113.800570 110.416889 107.125974 103.925512 100.813327 97.787370 94.845708 91.986520 89.208082 86.508767 83.887035 81.341428 78.870566 76.473141 74.147913 71.893705 69.709401 67.593941 65.546320 63.565583 61.650824 59.801181 58.015837 56.294016 54.634981 53.038033 51.502508 50.027779 48.613248 47.258352 45.962557 44.725358 43.546278 42.424870 41.360708 40.353397 39.402562 38.507855 37.668950 36.885543 36.157354 35.484123 34.865611 34.301600 33.791892 33.336310 32.934694 32.586906 32.292827 32.052353 31.865404 31.731914 31.651839 31.625150 31.651839 31.731914 31.865404 32.052353 32.292827 32.586906 32.934694 33.336310 33.791892 34.301600 34.865611 35.484123 36.157354 36.885543 37.668950 38.507855 39.402562 40.353397 41.360708 42.424870 43.546278 44.725358 45.962557 47.258352 48.613248 50.027779 51.502508 53.038033 54.634981 56.294016 58.015837 59.801181 61.650824 63.565583 65.546320 67.593941 69.709401 71.893705 74.147913 76.473141 78.870566 81.341428 83.887035 86.508767 89.208082 91.986520 94.845708 97.787370 100.813327 103.925512 107.125974 110.416889 113.800570 117.279475 120.856228 124.533623 128.314649 132.202501 136.200605 140.312636 144.542548 148.894603 153.373400 157.983919 162.731561 167.622203 172.662254 177.858727 183.219319 188.752510 194.467678 200.375235 206.486798 212.815390 219.375696 226.184369 233.260427 240.625753 248.305741 256.330141 264.734193 273.560163 282.859492 292.695876 303.149803 314.325554 326.362446 339.454056 353.883608 370.096189 388.869446 411.824040 443.875139 500.000000 500.000000 500.000000 500.000000 500.000000 500.000000 500.000000
500.000000 500.000000 500.000000 500.000000 500.000000 500.000000 500.000000 462.919008 422.540333 397.165181 377.117943 360.089314 345.080666 331.551195 319.168587 307.711155 297.022169 286.985916 277.514045 268.537260 260.000000 251.856896 244.070322 236.608656 229.445015 222.556312 215.922546 209.526249 203.352061 197.386385 191.617121 186.033441 180.625612 175.384843 170.303170 165.373342 160.588745 155.943319 151.431499 147.048162 142.788578 138.648371 134.623482 130.710141 126.904838 123.204299 119.605468 116.105483 112.701665 109.391500 106.172627 103.042823 100.000000 97.042186 94.167522 91.374254 88.660724 86.025363 83.466688 80.983294 78.573850 76.237095 73.971832 71.776927 69.651304 67.593941 65.603867 63.680163 61.821954 60.028410 58.298743 56.632207 55.028091 53.485723 52.004464 50.583712 49.222893 47.921467 46.678922 45.494775 44.368570 43.299880 42.288300 41.333454 40.434988 39.592572 38.805898 38.074681 37.398660 36.777591 36.211255 35.699451 35.241998 34.838738 34.489528 34.194246 33.952792 33.765081 33.631047 33.550646 33.523848 33.550646 33.631047 33.765081 33.952792 34.194246 34.489528 34.838738 35.241998 35.699451 36.211255 36.777591 37.398660 38.074681 38.805898 39.592572 40.434988 41.333454 42.288300 43.299880 44.368570 45.494775 46.678922 47.921467 49.222893 50.583712 52.004464 53.485723 55.028091 56.632207 58.298743 60.028410 61.821954 63.680163 65.603867 67.593941 69.651304 71.776927 73.971832 76.237095 78.573850 80.983294 83.466688 86.025363 88.660724 91.374254 94.167522 97.042186 100.000000 103.042823 106.172627 109.391500 112.701665 116.105483 119.605468 123.204299 126.904838 130.710141 134.623482 138.648371 142.788578 147.048162 151.431499 155.943319 160.588745 165.373342 170.303170 175.384843 180.625612 186.033441 191.617121 197.386385 203.352061 209.526249 215.922546 222.556312 229.445015 236.608656 244.070322 251.856896 260.000000 268.537260 277.514045 286.985916 297.022169 307.711155 319.168587 331.551195 345.080666 360.089314 377.117943 397.165181 422.540333 462.919008 500.000000 500.000000 500.000000 500.000000 500.000000 500.000000 500.000000
500.000000 500.000000 500.000000 500.000000 500.000000 500.000000 500.000000 500.000000 435.385760 406.458565 384.782814 366.770874 351.087274 337.058293 324.287166 312.516667 301.568652 291.313632 281.653944 272.513737 263.832686 255.561869 247.660942 240.096172 232.839000 225.864997 219.153067 212.684842 206.444213 200.416956 194.590439 188.953380 183.495656 178.208142 173.082579 168.111464 163.287957 158.605800 154.059254 149.643039 145.352287 141.182498 137.129500 133.189422 129.358664 125.633869 122.011905 118.489843 115.064941 111.734627 108.496488 105.348255 102.287792 99.313090 96.422250 93.613484 90.885102 88.235504 85.663180 83.166700 80.744708 78.395920 76.119121 73.913154 71.776927 69.709401 67.709588 65.776555 63.909413 62.107319 60.369473 58.695117 57.083529 55.534028 54.045966 52.618731 51.251741 49.944448 48.696333 47.506906 46.375706 45.302298 44.286274 43.327251 42.424870 41.578796 40.788720 40.054351 39.375424 38.751694 38.182937 37.668950 37.209551 36.804577 36.453886 36.157354 35.914878 35.726374 35.591774 35.511034 35.484123 35.511034 35.591774 35.726374 35.914878 36.157354 36.453886 36.804577 37.209551 37.668950 38.182937 38.751694 39.375424 40.054351 40.788720 41.578796 42.424870 43.327251 44.286274 45.302298 46.375706 47.506906 48.696333 49.944448 51.251741 52.618731 54.045966 55.534028 57.083529 58.695117 60.369473 62.107319 63.909413 65.776555 67.709588 69.709401 71.776927 73.913154 76.119121 78.395920 80.744708 83.166700 85.663180 88.235504 90.885102 93.613484 96.422250 99.313090 102.287792 105.348255 108.496488 111.734627 115.064941 118.489843 122.011905 125.633869 129.358664 133.189422 137.129500 141.182498 145.352287 149.643039 154.059254 158.605800 163.287957 168.111464 173.082579 178.208142 183.495656 188.953380 194.590439 200.416956 206.444213 212.684842 219.153067 225.864997 232.839000 240.096172 247.660942 255.561869 263.832686 272.513737 281.653944 291.313632 301.568652 312.516667 324.287166 337.058293 351.087274 366.770874 384.782814 406.458565 435.385760 500.000000 500.000000 500.000000 500.000000 500.000000 500.000000 500.000000 500.000000
500.000000 500.000000 500.000000 500.000000 500.000000 500.000000 500.000000 500.000000 452.041685 417.084380 393.229217 374.003968 357.521932 342.917219 329.706136 317.585637 306.350833 295.855443 285.990654 276.672886 267.836265 259.427766 251.403942 243.728659 236.371473 229.306446 222.511261 215.966551 209.655377 203.562823 197.675671 191.982143 186.471692 181.134825 175.962965 170.948332 166.083843 161.363026 156.779954 152.329179 148.005682 143.804829 139.722329 135.754204 131.896754 128.146534 124.500333 120.955148 117.508170 114.156768 110.898471 107.730960 104.652052 101.659693 98.751947 95.926987 93.183088 90.518621 87.932044 85.421901 82.986811 80.625466 78.336627 76.119121 73.971832 71.893705 69.883737 67.940976 66.064521 64.253514 62.507143 60.824636 59.205263 57.648330 56.153180 54.719190 53.345771 52.032367 50.778451 49.583526 48.447124 47.368804 46.348151 45.384778 44.478321 43.628441 42.834822 42.097172 41.415220 40.788720 40.217443 39.701184 39.239759 38.833002 38.480770 38.182937 37.939398 37.750068 37.614879 37.533785 37.506757 37.533785 37.614879 37.750068 37.939398 38.182937 38.480770 38.833002 39.239759 39.701184 40.217443 40.788720 41.415220 42.097172 42.834822 43.628441 44.478321 45.384778 46.348151 47.368804 48.447124 49.583526 50.778451 52.032367 53.345771 54.719190 56.153180 57.648330 59.205263 60.824636 62.507143 64.253514 66.064521 67.940976 69.883737 71.893705 73.971832 76.119121 78.336627 80.625466 82.986811 85.421901 87.932044 90.518621 93.183088 95.926987 98.751947 101.659693 104.652052 107.730960 110.898471 114.156768 117.508170 120.955148 124.500333 128.146534 131.896754 135.754204 139.722329 143.804829 148.005682 152.329179 156.779954 161.363026 166.083843 170.948332 175.962965 181.134825 186.471692 191.982143 197.675671 203.562823 209.655377 215.966551 222.511261 229.306446 236.371473 243.728659 251.403942 259.427766 267.836265 276.672886 285.990654 295.855443 306.350833 317.585637 329.706136 342.917219 357.521932 374.003968 393.229217 417.084380 452.041685 500.000000 500.000000 500.000000 500.000000 500.000000 500.000000 500.000000 500.000000
500.000000 500.000000 500.000000 500.000000 500.000000 500.000000 500.000000 500.000000 480.635083 429.643764 402.660388 381.889882 364.445583 349.168969 335.455173 322.940688 311.386639 300.625980 290.536399 281.025116 272.019738 263.462477 255.306314 247.512377 240.048081 232.885792 226.001825 219.375696 212.989547 206.827696 200.876280 195.122976 189.556768 184.167766 178.947045 173.886523 168.978853 164.217332 159.595828 155.108713 150.750805 146.517327 142.403859 138.406305 134.520862 130.743991 127.072393 123.502988 120.032896 116.659420 113.380032 110.192355 107.094159 104.083342 101.157926 98.316045 95.555937 92.875940 90.274482 87.750076 85.301314 82.926865 80.625466 78.395920 76.237095 74.147913 72.127355 70.174454 68.288291 66.467994 64.712739 63.021740 61.394254 59.829578 58.327044 56.886019 55.505906 54.186137 52.926181 51.725531 50.583712 49.500277 48.474807 47.506906 46.596206 45.742364 44.945058 44.203993 43.518894 42.889510 42.315611 41.796988 41.333454 40.924843 40.571007 40.271819 40.027175 39.836985 39.701184 39.619722 39.592572 39.619722 39.701184 39.836985 40.027175 40.271819 40.571007 40.924843 41.333454 41.796988 42.315611 42.889510 43.518894 44.203993 44.945058 45.742364 46.596206 47.506906 48.474807 49.500277 50.583712 51.725531 52.926181 54.186137 55.505906 56.886019 58.327044 59.829578 61.394254 63.021740 64.712739 66.467994 68.288291 70.174454 72.127355 74.147913 76.237095 78.395920 80.625466 82.926865 85.301314 87.750076 90.274482 92.875940 95.555937 98.316045 101.157926 104.083342 107.094159 110.192355 113.380032 116.659420 120.032896 123.502988 127.072393 130.743991 134.520862 138.406305 142.403859 146.517327 150.750805 155.108713 159.595828 164.217332 168.978853 173.886523 178.947045 184.167766 189.556768 195.122976 200.876280 206.827696 212.989547 219.375696 226.001825 232.885792 240.048081 247.512377 255.306314 263.462477 272.019738 281.025116 290.536399 300.625980 311.386639 322.940688 335.455173 349.168969 364.445583 381.889882 402.660388 429.643764 480.635083 500.000000 500.000000 500.000000 500.000000 500.000000 500.000000 500.000000 500.000000
500.000000 500.000000 500.000000 500.000000 500.000000 500.000000 500.000000 500.000000 500.000000 445.456439 413.397460 390.569657 371.937515 355.864647 341.570205 328.608635 316.696972 305.642083 295.305105 285.582184 276.393202 267.674797 259.375812 251.454230 243.875031 236.608656 229.629883 222.916980 216.451062 210.215597 204.196011 198.379377 192.754170 187.310058 182.037738 176.928800 171.975611 167.171215 162.509259 157.983919 153.589838 149.322085 145.176100 141.147663 137.232857 133.428043 129.729828 126.135051 122.640755 119.244173 115.942713 112.733942 109.615574 106.585460 103.641576 100.782014 98.004975 95.308760 92.691763 90.152467 87.689437 85.301314 82.986811 80.744708 78.573850 76.473141 74.441543 72.478071 70.581789 68.751812 66.987298 65.287451 63.651515 62.078774 60.568549 59.120198 57.733112 56.406718 55.140472 53.933861 52.786405 51.697647 50.667161 49.694548 48.779433 47.921467 47.120325 46.375706 45.687332 45.054948 44.478321 43.957239 43.491512 43.080970 42.725465 42.424870 42.179074 41.987991 41.851552 41.769709 41.742431 41.769709 41.851552 41.987991 42.179074 42.424870 42.725465 43.080970 43.491512 43.957239 44.478321 45.054948 45.687332 46.375706 47.120325 47.921467 48.779433 49.694548 50.667161 51.697647 52.786405 53.933861 55.140472 56.406718 57.733112 59.120198 60.568549 62.078774 63.651515 65.287451 66.987298 68.751812 70.581789 72.478071 74.441543 76.473141 78.573850 80.744708 82.986811 85.301314 87.689437 90.152467 92.691763 95.308760 98.004975 100.782014 103.641576 106.585460 109.615574 112.733942 115.942713 119.244173 122.640755 126.135051 129.729828 133.428043 137.232857 141.147663 145.176100 149.322085 153.589838 157.983919 162.509259 167.171215 171.975611 176.928800 182.037738 187.310058 192.754170 198.379377 204.196011 210.215597 216.451062 222.916980 229.629883 236.608656 243.875031 251.454230 259.375812 267.674797 276.393202 285.582184 295.305105 305.642083 316.696972 328.608635 341.570205 355.864647 371.937515 390.569657 413.397460 445.456439 500.000000 500.000000 500.000000 500.000000 500.000000 500.000000 500.000000 500.000000 500.000000
500.000000 500.000000 500.000000 500.000000 500.000000 500.000000 500.000000 500.000000 500.000000 469.177930 426.006757 400.250313 380.104212 363.069361 348.095425 334.621646 322.306444 310.923296 300.312745 290.357447 280.968039 272.074574 263.621067 255.561869 247.859166 240.481215 233.401050 226.595538 220.044646 213.730896 207.638922 201.755134 196.067442 190.565031 185.238185 180.078135 175.076932 170.227351 165.522796 160.957230 156.525110 152.221335 148.041196 143.980338 140.034724 136.200605 132.474491 128.853129 125.333482 121.912708 118.588149 115.357309 112.217845 109.167555 106.204368 103.326331 100.531603 97.818449 95.185228 92.630389 90.152467 87.750076 85.421901 83.166700 80.983294 78.870566 76.827458 74.852967 72.946139 71.106074 69.331914 67.622850 65.978111 64.396970 62.878735 61.422755 60.028410 58.695117 57.422323 56.209509 55.056183 53.961885 52.926181 51.948664 51.028954 50.166698 49.361564 48.613248 47.921467 47.285962 46.706497 46.182856 45.714847 45.302298 44.945058 44.642997 44.396005 44.203993 44.066891 43.984649 43.957239 43.984649 44.066891 44.203993 44.396005 44.642997 44.945058 45.302298 45.714847 46.182856 46.706497 47.285962 47.921467 48.613248 49.361564 50.166698 51.028954 51.948664 52.926181 53.961885 55.056183 56.209509 57.422323 58.695117 60.028410 61.422755 62.878735 64.396970 65.978111 67.622850 69.331914 71.106074 72.946139 74.852967 76.827458 78.870566 80.983294 83.166700 85.421901 87.750076 90.152467 92.630389 95.185228 97.818449 100.531603 103.326331 106.204368 109.167555 112.217845 115.357309 118.588149 121.912708 125.333482 128.853129 132.474491 136.200605 140.034724 143.980338 148.041196 152.221335 156.525110 160.957230 165.522796 170.227351 175.076932 180.078135 185.238185 190.565031 196.067442 201.755134 207.638922 213.730896 220.044646 226.595538 233.401050 240.481215 247.859166 255.561869 263.621067 272.074574 280.968039 290.357447 300.312745 310.923296 322.306444 334.621646 348.095425 363.069361 380.104212 400.250313 426.006757 469.177930 500.000000 500.000000 500.000000 500.000000 500.000000 500.000000 500.000000 500.000000 500.000000
500.000000 500.000000 500.000000 500.000000 500.000000 500.000000 500.000000 500.000000 500.000000 500.000000 441.690481 411.258803 389.094635 370.868284 355.086233 341.018869 328.244360 316.492507 305.577779 295.366181 285.757147 276.672886 268.051730 259.843801 252.008065 244.510274 237.321489 230.416989 223.775454 217.378345 211.209418 205.254347 199.500416 193.936281 188.551770 183.337719 178.285841 173.388610 168.639169 164.031251 159.559109 155.217460 151.001433 146.906528 142.928579 139.063718 135.308349 131.659125 128.112920 124.666815 121.318075 118.064142 114.902610 111.831222 108.847856 105.950511 103.137303 100.406457 97.756293 95.185228 92.691763 90.274482 87.932044 85.663180 83.466688 81.341428 79.286321 77.300343 75.382525 73.531947 71.747738 70.029071 68.375163 66.785273 65.258698 63.794773 62.392870 61.052395 59.772786 58.553514 57.394080 56.294016 55.252881 54.270261 53.345771 52.479051 51.669765 50.917602 50.222277 49.583526 49.001109 48.474807 48.004425 47.589788 47.230743 46.927158 46.678922 46.485943 46.348151 46.265496 46.237948 46.265496 46.348151 46.485943 46.678922 46.927158 47.230743 47.589788 48.004425 48.474807 49.001109 49.583526 50.222277 50.917602 51.669765 52.479051 53.345771 54.270261 55.252881 56.294016 57.394080 58.553514 59.772786 61.052395 62.392870 63.794773 65.258698 66.785273 68.375163 70.029071 71.747738 73.531947 75.382525 77.300343 79.286321 81.341428 83.466688 85.663180 87.932044 90.274482 92.691763 95.185228 97.756293 100.406457 103.137303 105.950511 108.847856 111.831222 114.902610 118.064142 121.318075 124.666815 128.112920 131.659125 135.308349 139.063718 142.928579 146.906528 151.001433 155.217460 159.559109 164.031251 168.639169 173.388610 178.285841 183.337719 188.551770 193.936281 199.500416 205.254347 211.209418 217.378345 223.775454 230.416989 237.321489 244.510274 252.008065 259.843801 268.051730 276.672886 285.757147 295.366181 305.577779 316.492507 328.244360 341.018869 355.086233 370.868284 389.094635 411.258803 441.690481 500.000000 500.000000 500.000000 500.000000 500.000000 500.000000 500.000000 500.000000 500.000000 500.000000
500.000000 500.000000 500.000000 500.000000 500.000000 500.000000 500.000000 500.000000 500.000000 500.000000 464.292858 424.171246 399.128795 379.376619 362.613683 347.848759 334.546079 322.376803 311.121732 300.625980 290.775240 281.482266 272.678642 264.309525 256.330141 248.703363 241.397989 234.387500 227.649123 221.163130 214.912294 208.881467 203.057245 197.427695 191.982143 186.710996 181.605591 176.658076 171.861310 167.208774 162.694500 158.313009 154.059254 149.928579 145.916676 142.019554 138.233501 134.555066 130.981030 127.508389 124.134333 120.856228 117.671607 114.578153 111.573688 108.656161 105.823644 103.074314 100.406457 97.818449 95.308760 92.875940 90.518621 88.235504 86.025363 83.887035 81.819417 79.821467 77.892194 76.030661 74.235981 72.507310 70.843851 69.244849 67.709588 66.237392 64.827620 63.479668 62.192965 60.966972 59.801181 58.695117 57.648330 56.660401 55.730937 54.859573 54.045966 53.289803 52.590791 51.948664 51.363176 50.834106 50.361256 49.944448 49.583526 49.278356 49.028826 48.834842 48.696333 48.613248 48.585556 48.613248 48.696333 48.834842 49.028826 49.278356 49.583526 49.944448 50.361256 50.834106 51.363176 51.948664 52.590791 53.289803 54.045966 54.859573 55.730937 56.660401 57.648330 58.695117 59.801181 60.966972 62.192965 63.479668 64.827620 66.237392 67.709588 69.244849 70.843851 72.507310 74.235981 76.030661 77.892194 79.821467 81.819417 83.887035 86.025363 88.235504 90.518621 92.875940 95.308760 97.818449 100.406457 103.074314 105.823644 108.656161 111.573688 114.578153 117.671607 120.856228 124.134333 127.508389 130.981030 134.555066 138.233501 142.019554 145.916676 149.928579 154.059254 158.313009 162.694500 167.208774 171.861310 176.658076 181.605591 186.710996 191.982143 197.427695 203.057245 208.881467 214.912294 221.163130 227.649123 234.387500 241.397989 248.703363 256.330141 264.309525 272.678642 281.482266 290.775240 300.625980 311.121732 322.376803 334.546079 347.848759 362.613683 379.376619 399.128795 424.171246 464.292858 500.000000 500.000000 500.000000 500.000000 500.000000 500.000000 500.000000 500.000000 500.000000 500.000000
500.000000 500.000000 500.000000 500.000000 500.000000 500.000000 500.000000 500.000000 500.000000 500.000000 500.000000 440.208696 410.557281 388.757023 370.771520 355.172516 341.254921 328.608635 316.969948 306.157280 296.039219 286.516980 277.514045 268.969699 260.834785 253.068836 245.638053 238.513863 231.671843 225.090924 218.752778 212.641339 206.742434 201.043481 195.533253 190.201679 185.039685 180.039065 175.192365 170.492792 165.934138 161.510709 157.217270 153.048995 149.001425 145.070430 141.252178 137.543106 133.939896 130.439450 127.038876 123.735465 120.526681 117.410141 114.383610 111.444985 108.592284 105.823644 103.137303 100.531603 98.004975 95.555937 93.183088 90.885102 88.660724 86.508767 84.428105 82.417673 80.476461 78.603512 76.797921 75.058828 73.385420 71.776927 70.232621 68.751812 67.333847 65.978111 64.684023 63.451034 62.278627 61.166319 60.113651 59.120198 58.185559 57.309363 56.491263 55.730937 55.028091 54.382451 53.793770 53.261822 52.786405 52.367338 52.004464 51.697647 51.446770 51.251741 51.112486 51.028954 51.001114 51.028954 51.112486 51.251741 51.446770 51.697647 52.004464 52.367338 52.786405 53.261822 53.793770 54.382451 55.028091 55.730937 56.491263 57.309363 58.185559 59.120198 60.113651 61.166319 62.278627 63.451034 64.684023 65.978111 67.333847 68.751812 70.232621 71.776927 73.385420 75.058828 76.797921 78.603512 80.476461 82.417673 84.428105 86.508767 88.660724 90.885102 93.183088 95.555937 98.004975 100.531603 103.137303 105.823644 108.592284 111.444985 114.383610 117.410141 120.526681 123.735465 127.038876 130.439450 133.939896 137.543106 141.252178 145.070430 149.001425 153.048995 157.217270 161.510709 165.934138 170.492792 175.192365 180.039065 185.039685 190.201679 195.533253 201.043481 206.742434 212.641339 218.752778 225.090924 231.671843 238.513863 245.638053 253.068836 260.834785 268.969699 277.514045 286.516980 296.039219 306.157280 316.969948 328.608635 341.254921 355.172516 370.771520 388.757023 410.557281 440.208696 500.000000 500.000000 500.000000 500.000000 500.000000 500.000000 500.000000 500.000000 500.000000 500.000000 500.000000
500.000000 500.000000 500.000000 500.000000 500.000000 500.000000 500.000000 500.000000 500.000000 500.000000 500.000000 463.257654 424.006579 399.252792 379.687906 363.069361 348.424936 335.227429 323.152608 311.984043 301.568652 291.793372 282.571851 273.836342 265.532518 257.616007 250.050005 242.803577 235.850421 229.167949 222.736587 216.539244 210.560887 204.788212 199.209375 193.813782 188.591908 183.535152 178.635721 173.886523 169.281086 164.813485 160.478278 156.270455 152.185394 148.218818 144.366762 140.625543 136.991736 133.462144 130.033785 126.703871 123.469789 120.329090 117.279475 114.318784 111.444985 108.656161 105.950511 103.326331 100.782014 98.316045 95.926987 93.613484 91.374254 89.208082 87.113817 85.090371 83.136713 81.251866 79.434904 77.684952 76.001179 74.382801 72.829074 71.339295 69.912800 68.548960 67.247184 66.006912 64.827620 63.708813 62.650026 61.650824 60.710801 59.829578 59.006803 58.242148 57.535312 56.886019 56.294016 55.759074 55.280988 54.859573 54.494669 54.186137 53.933861 53.737745 53.597715 53.513718 53.485723 53.513718 53.597715 53.737745 53.933861 54.186137 54.494669 54.859573 55.280988 55.759074 56.294016 56.886019 57.535312 58.242148 59.006803 59.829578 60.710801 61.650824 62.650026 63.708813 64.827620 66.006912 67.247184 68.548960 69.912800 71.339295 72.829074 74.382801 76.001179 77.684952 79.434904 81.251866 83.136713 85.090371 87.113817 89.208082 91.374254 93.613484 95.926987 98.316045 100.782014 103.326331 105.950511 108.656161 111.444985 114.318784 117.279475 120.329090 123.469789 126.703871 130.033785 133.462144 136.991736 140.625543 144.366762 148.218818 152.185394 156.270455 160.478278 164.813485 169.281086 173.886523 178.635721 183.535152 188.591908 193.813782 199.209375 204.788212 210.560887 216.539244 222.736587 229.167949 235.850421 242.803577 250.050005 257.616007 265.532518 273.836342 282.571851 291.793372 301.568652 311.984043 323.152608 335.227429 348.424936 363.069361 379.687906 399.252792 424.006579 463.257654 500.000000 500.000000 500.000000 500.000000 500.000000 500.000000 500.000000 500.000000 500.000000 500.000000 500.000000
500.000000 500.000000 500.000000 500.000000 500.000000 500.000000 500.000000 500.000000 500.000000 500.000000 500.000000 500.000000 440.839202 411.258803 389.546390 371.645023 356.125054 342.281897 329.706136 318.134665 307.386397 297.330318 287.867966 278.923090 270.435194 262.355307 254.643117 247.264961 240.192379 233.401050 226.869994 220.580960 214.517952 208.666857 203.015152 197.551657 192.266349 187.150196 182.195028 177.393428 172.738637 168.224473 163.845274 159.595828 155.471336 151.467362 147.579796 143.804829 140.138916 136.578757 133.121273 129.763589 126.503012 123.337021 120.263249 117.279475 114.383610 111.573688 108.847856 106.204368 103.641576 101.157926 98.751947 96.422250 94.167522 91.986520 89.878067 87.841050 85.874415 83.977164 82.148352 80.387083 78.692511 77.063835 75.500294 74.001174 72.565795 71.193517 69.883737 68.635885 67.449425 66.323854 65.258698 64.253514 63.307889 62.421436 61.593796 60.824636 60.113651 59.460558 58.865100 58.327044 57.846181 57.422323 57.055308 56.744994 56.491263 56.294016 56.153180 56.068699 56.040542 56.068699 56.153180 56.294016 56.491263 56.744994 57.055308 57.422323 57.846181 58.327044 58.865100 59.460558 60.113651 60.824636 61.593796 62.421436 63.307889 64.253514 65.258698 66.323854 67.449425 68.635885 69.883737 71.193517 72.565795 74.001174 75.500294 77.063835 78.692511 80.387083 82.148352 83.977164 85.874415 87.841050 89.878067 91.986520 94.167522 96.422250 98.751947 101.157926 103.641576 106.204368 108.847856 111.573688 114.383610 117.279475 120.263249 123.337021 126.503012 129.763589 133.121273 136.578757 140.138916 143.804829 147.579796 151.467362 155.471336 159.595828 163.845274 168.224473 172.738637 177.393428 182.195028 187.150196 192.266349 197.551657 203.015152 208.666857 214.517952 220.580960 226.869994 233.401050 240.192379 247.264961 254.643117 262.355307 270.435194 278.923090 287.867966 297.330318 307.386397 318.134665 329.706136 342.281897 356.125054 371.645023 389.546390 411.258803 440.839202 500.000000 500.000000 500.000000 500.000000 500.000000 500.000000 500.000000 500.000000 500.000000 500.000000 500.000000 500.000000
500.000000 500.000000 500.000000 500.000000 500.000000 500.000000 500.000000 500.000000 500.000000 500.000000 500.000000 500.000000 465.721727 425.501678 400.626965 381.046227 364.445583 349.833426 336.675170 324.643221 313.519438 303.149803 293.420717 284.245510 275.556243 267.298474 259.427766 251.907275 244.706052 237.797788 231.159899 224.772821 218.619475 212.684842 206.955635 201.420027 196.067442 190.888370 185.874229 181.017242 176.310334 171.747049 167.321476 163.028191 158.862198 154.818888 150.893999 147.083579 143.383960 139.791727 136.303698 132.916903 129.628565 126.436083 123.337021 120.329090 117.410141 114.578153 111.831222 109.167555 106.585460 104.083342 101.659693 99.313090 97.042186 94.845708 92.722453 90.671281 88.691114 86.780930 84.939763 83.166700 81.460874 79.821467 78.247703 76.738851 75.294219 73.913154 72.595040 71.339295 70.145373 69.012761 67.940976 66.929567 65.978111 65.086215 64.253514 63.479668 62.764366 62.107319 61.508267 60.966972 60.483220 60.056822 59.687611 59.375443 59.120198 58.921776 58.780100 58.695117 58.666793 58.695117 58.780100 58.921776 59.120198 59.375443 59.687611 60.056822 60.483220 60.966972 61.508267 62.107319 62.764366 63.479668 64.253514 65.086215 65.978111 66.929567 67.940976 69.012761 70.145373 71.339295 72.595040 73.913154 75.294219 76.738851 78.247703 79.821467 81.460874 83.166700 84.939763 86.780930 88.691114 90.671281 92.722453 94.845708 97.042186 99.313090 101.659693 104.083342 106.585460 109.167555 111.831222 114.578153 117.410141 120.329090 123.337021 126.436083 129.628565 132.916903 136.303698 139.791727 143.383960 147.083579 150.893999 154.818888 158.862198 163.028191 167.321476 171.747049 176.310334 181.017242 185.874229 190.888370 196.067442 201.420027 206.955635 212.684842 218.619475 224.772821 231.159899 237.797788 244.706052 251.907275 259.427766 267.298474 275.556243 284.245510 293.420717 303.149803 313.519438 324.643221 336.675170 349.833426 364.445583 381.046227 400.626965 425.501678 465.721727 500.000000 500.000000 500.000000 500.000000 500.000000 500.000000 500.000000 500.000000 500.000000 500.000000 500.000000 500.000000
500.000000 500.000000 500.000000 500.000000 500.000000 500.000000 500.000000 500.000000 500.000000 500.000000 500.000000 500.000000 500.000000 443.652862 413.397460 391.487328 373.508894 357.961273 344.115427 331.551195 320.000000 309.277689 299.251401 289.821504 280.910977 272.458795 264.415620 256.740879 249.400718 242.366539 235.613919 229.121799 222.871871 216.848097 211.036334 205.424034 200.000000 194.754197 189.677587 184.761995 180.000000 175.384843 170.910347 166.570847 162.361140 158.276428 154.312280 150.464594 146.729565 143.103657 139.583574 136.166247 132.848805 129.628565 126.503012 123.469789 120.526681 117.671607 114.902610 112.217845 109.615574 107.094159 104.652052 102.287792 100.000000 97.787370 95.648668 93.582727 91.588443 89.664771 87.810723 86.025363 84.307806 82.657215 81.072799 79.553808 78.099538 76.709320 75.382525 74.118561 72.916870 71.776927 70.698241 69.680351 68.722827 67.825267 66.987298 66.208575 65.488780 64.827620 64.224829 63.680163 63.193407 62.764366 62.392870 62.078774 61.821954 61.622309 61.479761 61.394254 61.365756 61.394254 61.479761 61.622309 61.821954 62.078774 62.392870 62.764366 63.193407 63.680163 64.224829 64.827620 65.488780 66.208575 66.987298 67.825267 68.722827 69.680351 70.698241 71.776927 72.916870 74.118561 75.382525 76.709320 78.099538 79.553808 81.072799 82.657215 84.307806 86.025363 87.810723 89.664771 91.588443 93.582727 95.648668 97.787370 100.000000 102.287792 104.652052 107.094159 109.615574 112.217845 114.902610 117.671607 120.526681 123.469789 126.503012 129.628565 132.848805 136.166247 139.583574 143.103657 146.729565 150.464594 154.312280 158.276428 162.361140 166.570847 170.910347 175.384843 180.000000 184.761995 189.677587 194.754197 200.000000 205.424034 211.036334 216.848097 222.871871 229.121799 235.613919 242.366539 249.400718 256.740879 264.415620 272.458795 280.910977 289.821504 299.251401 309.277689 320.000000 331.551195 344.115427 357.961273 373.508894 391.487328 413.397460 443.652862 500.000000 500.000000 500.000000 500.000000 500.000000 500.000000 500.000000 500.000000 500.000000 500.000000 500.000000 500.000000 500.000000
500.000000 500.000000 500.000000 500.000000 500.000000 500.000000 500.000000 500.000000 500.000000 500.000000 500.000000 500.000000 500.000000 472.613872 428.760966 403.304602 383.488198 366.770874 352.098005 338.909963 326.867103 315.744742 305.384995 295.671833 286.516980 277.851401 269.619879 261.777415 254.286752 247.116628 240.240496 233.635588 227.282197 221.163130 215.263280 209.569285 204.069265 198.752593 193.609726 188.632050 183.811765 179.141776 174.615612 170.227351 165.971558 161.843232 157.837758 153.950871 150.178617 146.517327 142.963587 139.514217 136.166247 132.916903 129.763589 126.703871 123.735465 120.856228 118.064142 115.357309 112.733942 110.192355 107.730960 105.348255 103.042823 100.813327 98.658500 96.577145 94.568131 92.630389 90.762905 88.964722 87.234934 85.572684 83.977164 82.447608 80.983294 79.583540 78.247703 76.975178 75.765395 74.617819 73.531947 72.507310 71.543468 70.640011 69.796560 69.012761 68.288291 67.622850 67.016167 66.467994 65.978111 65.546320 65.172448 64.856346 64.597887 64.396970 64.253514 64.167463 64.138784 64.167463 64.253514 64.396970 64.597887 64.856346 65.172448 65.546320 65.978111 66.467994 67.016167 67.622850 68.288291 69.012761 69.796560 70.640011 71.543468 72.507310 73.531947 74.617819 75.765395 76.975178 78.247703 79.583540 80.983294 82.447608 83.977164 85.572684 87.234934 88.964722 90.762905 92.630389 94.568131 96.577145 98.658500 100.813327 103.042823 105.348255 107.730960 110.192355 112.733942 115.357309 118.064142 120.856228 123.735465 126.703871 129.763589 132.916903 136.166247 139.514217 142.963587 146.517327 150.178617 153.950871 157.837758 161.843232 165.971558 170.227351 174.615612 179.141776 183.811765 188.632050 193.609726 198.752593 204.069265 209.569285 215.263280 221.163130 227.282197 233.635588 240.240496 247.116628 254.286752 261.777415 269.619879 277.851401 286.516980 295.671833 305.384995 315.744742 326.867103 338.909963 352.098005 366.770874 383.488198 403.304602 428.760966 472.613872 500.000000 500.000000 500.000000 500.000000 500.000000 500.000000 500.000000 500.000000 500.000000 500.000000 500.000000 500.000000 500.000000
500.000000 500.000000 500.000000 500.000000 500.000000 500.000000 500.000000 500.000000 500.000000 500.000000 500.000000 500.000000 500.000000 500.000000 449.009805 417.084380 394.643462 376.407929 360.716117 346.784466 334.168760 322.588050 311.851123 301.820788 292.394605 283.493649 275.055562 267.030045 259.375812 252.058475 245.049024 238.322718 231.858246 225.637102 219.643085 213.861921 208.280957 202.888910 197.675671 192.632142 187.750100 183.022083 178.441296 174.001534 169.697109 165.522796 161.473782 157.545623 153.734206 150.035716 146.446609 142.963587 139.583574 136.303698 133.121273 130.033785 127.038876 124.134333 121.318075 118.588149 115.942713 113.380032 110.898471 108.496488 106.172627 103.925512 101.753845 99.656398 97.632009 95.679583 93.798080 91.986520 90.243975 88.569568 86.962471 85.421901 83.947119 82.537427 81.192168 79.910724 78.692511 77.536984 76.443628 75.411964 74.441543 73.531947 72.682788 71.893705 71.164367 70.494470 69.883737 69.331914 68.838777 68.404124 68.027779 67.709588 67.449425 67.247184 67.102784 67.016167 66.987298 67.016167 67.102784 67.247184 67.449425 67.709588 68.027779 68.404124 68.838777 69.331914 69.883737 70.494470 71.164367 71.893705 72.682788 73.531947 74.441543 75.411964 76.443628 77.536984 78.692511 79.910724 81.192168 82.537427 83.947119 85.421901 86.962471 88.569568 90.243975 91.986520 93.798080 95.679583 97.632009 99.656398 101.753845 103.925512 106.172627 108.496488 110.898471 113.380032 115.942713 118.588149 121.318075 124.134333 127.038876 130.033785 133.121273 136.303698 139.583574 142.963587 146.446609 150.035716 153.734206 157.545623 161.473782 165.522796 169.697109 174.001534 178.441296 183.022083 187.750100 192.632142 197.675671 202.888910 208.280957 213.861921 219.643085 225.637102 231.858246 238.322718 245.049024 252.058475 259.375812 267.030045 275.055562 283.493649 292.394605 301.820788 311.851123 322.588050 334.168760 346.784466 360.716117 376.407929 394.643462 417.084380 449.009805 500.000000 500.000000 500.000000 500.000000 500.000000 500.000000 500.000000 500.000000 500.000000 500.000000 500.000000 500.000000 500.000000 500.000000
500.000000 500.000000 500.000000 500.000000 500.000000 500.000000 500.000000 500.000000 500.000000 500.000000 500.000000 500.000000 500.000000 500.000000 491.339746 434.045470 407.398704 387.084102 370.096189 355.258852 341.965194 329.853005 318.685356 308.297105 298.567629 289.405603 280.739881 272.513737 264.681067 257.203789 250.050005 243.192679 236.608656 230.277921 224.183032 218.308680 212.641339 207.168991 201.880896 196.767416 191.819858 187.030353 182.391751 177.897532 173.541733 169.318885 165.223955 161.252306 157.399650 153.662015 150.035716 146.517327 143.103657 139.791727 136.578757 133.462144 130.439450 127.508389 124.666815 121.912708 119.244173 116.659420 114.156768 111.734627 109.391500 107.125974 104.936714 102.822458 100.782014 98.814257 96.918122 95.092603 93.336749 91.649660 90.030489 88.478433 86.992736 85.572684 84.217605 82.926865 81.699869 80.536056 79.434904 78.395920 77.418647 76.502656 75.647552 74.852967 74.118561 73.444025 72.829074 72.273452 71.776927 71.339295 70.960375 70.640011 70.378073 70.174454 70.029071 69.941864 69.912800 69.941864 70.029071 70.174454 70.378073 70.640011 70.960375 71.339295 71.776927 72.273452 72.829074 73.444025 74.118561 74.852967 75.647552 76.502656 77.418647 78.395920 79.434904 80.536056 81.699869 82.926865 84.217605 85.572684 86.992736 88.478433 90.030489 91.649660 93.336749 95.092603 96.918122 98.814257 100.782014 102.822458 104.936714 107.125974 109.391500 111.734627 114.156768 116.659420 119.244173 121.912708 124.666815 127.508389 130.439450 133.462144 136.578757 139.791727 143.103657 146.517327 150.035716 153.662015 157.399650 161.252306 165.223955 169.318885 173.541733 177.897532 182.391751 187.030353 191.819858 196.767416 201.880896 207.168991 212.641339 218.308680 224.183032 230.277921 236.608656 243.192679 250.050005 257.203789 264.681067 272.513737 280.739881 289.405603 298.567629 308.297105 318.685356 329.853005 341.965194 355.258852 370.096189 387.084102 407.398704 434.045470 491.339746 500.000000 500.000000 500.000000 500.000000 500.000000 500.000000 500.000000 500.000000 500.000000 500.000000 500.000000 500.000000 500.000000 500.000000
500.000000 500.000000 500.000000 500.000000 500.000000 500.000000 500.000000 500.000000 500.000000 500.000000 500.000000 500.000000 500.000000 500.000000 500.000000 457.869251 422.540333 399.128795 380.417393 364.445583 350.333705 337.596182 325.931048 315.135185 305.064113 295.610666 286.692710 278.245631 270.217494 262.565799 255.255235 248.256082 241.543040 235.094356 228.891166 222.916980 217.157288 211.599237 206.231384 201.043481 196.026317 191.171569 186.471692 181.919821 177.509690 173.235559 169.092158 165.074635 161.178513 157.399650 153.734206 150.178617 146.729565 143.383960 140.138916 136.991736 133.939896 130.981030 128.112920 125.333482 122.640755 120.032896 117.508170 115.064941 112.701665 110.416889 108.209240 106.077419 104.020203 102.036434 100.125020 98.284927 96.515180 94.814857 93.183088 91.619050 90.121969 88.691114 87.325794 86.025363 84.789210 83.616763 82.507485 81.460874 80.476461 79.553808 78.692511 77.892194 77.152510 76.473141 75.853799 75.294219 74.794167 74.353433 73.971832 73.649205 73.385420 73.180366 73.033959 72.946139 72.916870 72.946139 73.033959 73.180366 73.385420 73.649205 73.971832 74.353433 74.794167 75.294219 75.853799 76.473141 77.152510 77.892194 78.692511 79.553808 80.476461 81.460874 82.507485 83.616763 84.789210 86.025363 87.325794 88.691114 90.121969 91.619050 93.183088 94.814857 96.515180 98.284927 100.125020 102.036434 104.020203 106.077419 108.209240 110.416889 112.701665 115.064941 117.508170 120.032896 122.640755 125.333482 128.112920 130.981030 133.939896 136.991736 140.138916 143.383960 146.729565 150.178617 153.734206 157.399650 161.178513 165.074635 169.092158 173.235559 177.509690 181.919821 186.471692 191.171569 196.026317 201.043481 206.231384 211.599237 217.157288 222.916980 228.891166 235.094356 241.543040 248.256082 255.255235 262.565799 270.217494 278.245631 286.692710 295.610666 305.064113 315.135185 325.931048 337.596182 350.333705 364.445583 380.417393 399.128795 422.540333 457.869251 500.000000 500.000000 500.000000 500.000000 500.000000 500.000000 500.000000 500.000000 500.000000 500.000000 500.000000 500.000000 500.000000 500.000000 500.000000
500.000000 500.000000 500.000000 500.000000 500.000000 500.000000 500.000000 500.000000 500.000000 500.000000 500.000000 500.000000 500.000000 500.000000 500.000000 500.000000 441.905250 413.109264 391.949086 374.500996 359.376389 345.889650 333.641952 322.376803 311.917571 302.136411 292.937208 284.245510 276.002232 268.159538 260.678041 253.524849 246.672149 240.096172 233.776410 227.695024 221.836379 216.186681 210.733687 205.466470 200.375235 195.451153 190.686243 186.073257 181.605591 177.277209 173.082579 169.016617 165.074635 161.252306 157.545623 153.950871 150.464594 147.083579 143.804829 140.625543 137.543106 134.555066 131.659125 128.853129 126.135051 123.502988 120.955148 118.489843 116.105483 113.800570 111.573688 109.423503 107.348755 105.348255 103.420878 101.565564 99.781310 98.067170 96.422250 94.845708 93.336749 91.894621 90.518621 89.208082 87.962380 86.780930 85.663180 84.608618 83.616763 82.687168 81.819417 81.013127 80.267943 79.583540 78.959622 78.395920 77.892194 77.448228 77.063835 76.738851 76.473141 76.266593 76.119121 76.030661 76.001179 76.030661 76.119121 76.266593 76.473141 76.738851 77.063835 77.448228 77.892194 78.395920 78.959622 79.583540 80.267943 81.013127 81.819417 82.687168 83.616763 84.608618 85.663180 86.780930 87.962380 89.208082 90.518621 91.894621 93.336749 94.845708 96.422250 98.067170 99.781310 101.565564 103.420878 105.348255 107.348755 109.423503 111.573688 113.800570 116.105483 118.489843 120.955148 123.502988 126.135051 128.853129 131.659125 134.555066 137.543106 140.625543 143.804829 147.083579 150.464594 153.950871 157.545623 161.252306 165.074635 169.016617 173.082579 177.277209 181.605591 186.073257 190.686243 195.451153 200.375235 205.466470 210.733687 216.186681 221.836379 227.695024 233.776410 240.096172 246.672149 253.524849 260.678041 268.159538 276.002232 284.245510 292.937208 302.136411 311.917571 322.376803 333.641952 345.889650 359.376389 374.500996 391.949086 413.109264 441.905250 500.000000 500.000000 500.000000 500.000000 500.000000 500.000000 500.000000 500.000000 500.000000 500.000000 500.000000 500.000000 500.000000 500.000000 500.000000 500.000000
500.000000 500.000000 500.000000 500.000000 500.000000 500.000000 500.000000 500.000000 500.000000 500.000000 500.000000 500.000000 500.000000 500.000000 500.000000 500.000000 473.542487 430.178800 405.131670 385.654034 369.233032 354.827689 341.886117 330.073545 319.168587 309.015707 299.500623 290.536399 282.055053 274.002212 266.333571 259.012448 252.008065 245.294287 238.848703 232.651912 226.686993 220.939075 215.395011 210.043107 204.872909 199.875026 195.040986 190.363116 185.834439 181.448591 177.199752 173.082579 169.092158 165.223955 161.473782 157.837758 154.312280 150.893999 147.579796 144.366762 141.252178 138.233501 135.308349 132.474491 129.729828 127.072393 124.500333 122.011905 119.605468 117.279475 115.032469 112.863073 110.769991 108.751997 106.807935 104.936714 103.137303 101.408731 99.750078 98.160480 96.639119 95.185228 93.798080 92.476995 91.221331 90.030489 88.903904 87.841050 86.841435 85.904600 85.030122 84.217605 83.466688 82.777038 82.148352 81.580354 81.072799 80.625466 80.238163 79.910724 79.643009 79.434904 79.286321 79.197196 79.167492 79.197196 79.286321 79.434904 79.643009 79.910724 80.238163 80.625466 81.072799 81.580354 82.148352 82.777038 83.466688 84.217605 85.030122 85.904600 86.841435 87.841050 88.903904 90.030489 91.221331 92.476995 93.798080 95.185228 96.639119 98.160480 99.750078 101.408731 103.137303 104.936714 106.807935 108.751997 110.769991 112.863073 115.032469 117.279475 119.605468 122.011905 124.500333 127.072393 129.729828 132.474491 135.308349 138.233501 141.252178 144.366762 147.579796 150.893999 154.312280 157.837758 161.473782 165.223955 169.092158 173.082579 177.199752 181.448591 185.834439 190.363116 195.040986 199.875026 204.872909 210.043107 215.395011 220.939075 226.686993 232.651912 238.848703 245.294287 252.008065 259.012448 266.333571 274.002212 282.055053 290.536399 299.500623 309.015707 319.168587 330.073545 341.886117 354.827689 369.233032 385.654034 405.131670 430.178800 473.542487 500.000000 500.000000 500.000000 500.000000 500.000000 500.000000 500.000000 500.000000 500.000000 500.000000 500.000000 500.000000 500.000000 500.000000 500.000000 500.000000
500.000000 500.000000 500.000000 500.000000 500.000000 500.000000 500.000000 500.000000 500.000000 500.000000 500.000000 500.000000 500.000000 500.000000 500.000000 500.000000 500.000000 453.631908 420.785102 398.265050 380.104212 364.537828 350.751884 338.290384 326.867103 316.288269 306.415393 297.145372 288.398960 280.113666 272.239161 264.734193 257.564442 250.700983 244.119168 237.797788 231.718431 225.864997 220.223303 214.780786 209.526249 204.449666 199.542016 194.795151 190.201679 185.754873 181.448591 177.277209 173.235559 169.318885 165.522796 161.843232 158.276428 154.818888 151.467362 148.218818 145.070430 142.019554 139.063718 136.200605 133.428043 130.743991 128.146534 125.633869 123.204299 120.856228 118.588149 116.398644 114.286376 112.250081 110.288568 108.400715 106.585460 104.841804 103.168802 101.565564 100.031251 98.565074 97.166287 95.834192 94.568131 93.367488 92.231683 91.160178 90.152467 89.208082 88.326586 87.507576 86.750681 86.055559 85.421901 84.849425 84.337878 83.887035 83.496699 83.166700 82.896895 82.687168 82.537427 82.447608 82.417673 82.447608 82.537427 82.687168 82.896895 83.166700 83.496699 83.887035 84.337878 84.849425 85.421901 86.055559 86.750681 87.507576 88.326586 89.208082 90.152467 91.160178 92.231683 93.367488 94.568131 95.834192 97.166287 98.565074 100.031251 101.565564 103.168802 104.841804 106.585460 108.400715 110.288568 112.250081 114.286376 116.398644 118.588149 120.856228 123.204299 125.633869 128.146534 130.743991 133.428043 136.200605 139.063718 142.019554 145.070430 148.218818 151.467362 154.818888 158.276428 161.843232 165.522796 169.318885 173.235559 177.277209 181.448591 185.754873 190.201679 194.795151 199.542016 204.449666 209.526249 214.780786 220.223303 225.864997 231.718431 237.797788 244.119168 250.700983 257.564442 264.734193 272.239161 280.113666 288.398960 297.145372 306.415393 316.288269 326.867103 338.290384 350.751884 364.537828 380.104212 398.265050 420.785102 453.631908 500.000000 500.000000 500.000000 500.000000 500.000000 500.000000 500.000000 500.000000 500.000000 500.000000 500.000000 500.000000 500.000000 500.000000 500.000000 500.000000 500.000000
500.000000 500.000000 500.000000 500.000000 500.000000 500.000000 500.000000 500.000000 500.000000 500.000000 500.000000 500.000000 500.000000 500.000000 500.000000 500.000000 500.000000 500.000000 440.839202 412.965524 392.296704 375.200160 360.357600 347.111151 335.075775 324.002841 313.720640 304.104620 295.060985 286.516980 278.414802 270.707610 263.356809 256.330141 249.600319 243.144009 236.941071 230.973979 225.227367 219.687674 214.342863 209.182188 204.196011 199.375650 194.713250 190.201679 185.834439 181.605591 177.509690 173.541733 169.697109 165.971558 162.361140 158.862198 155.471336 152.185394 149.001425 145.916676 142.928579 140.034724 137.232857 134.520862 131.896754 129.358664 126.904838 124.533623 122.243465 120.032896 117.900537 115.845083 113.865308 111.960054 110.128226 108.368796 106.680791 105.063296 103.515448 102.036434 100.625489 99.281895 98.004975 96.794097 95.648668 94.568131 93.551971 92.599705 91.710887 90.885102 90.121969 89.421140 88.782296 88.205148 87.689437 87.234934 86.841435 86.508767 86.236783 86.025363 85.874415 85.783873 85.753696 85.783873 85.874415 86.025363 86.236783 86.508767 86.841435 87.234934 87.689437 88.205148 88.782296 89.421140 90.121969 90.885102 91.710887 92.599705 93.551971 94.568131 95.648668 96.794097 98.004975 99.281895 100.625489 102.036434 103.515448 105.063296 106.680791 108.368796 110.128226 111.960054 113.865308 115.845083 117.900537 120.032896 122.243465 124.533623 126.904838 129.358664 131.896754 134.520862 137.232857 140.034724 142.928579 145.916676 149.001425 152.185394 155.471336 158.862198 162.361140 165.971558 169.697109 173.541733 177.509690 181.605591 185.834439 190.201679 194.713250 199.375650 204.196011 209.182188 214.342863 219.687674 225.227367 230.973979 236.941071 243.144009 249.600319 256.330141 263.356809 270.707610 278.414802 286.516980 295.060985 304.104620 313.720640 324.002841 335.075775 347.111151 360.357600 375.200160 392.296704 412.965524 440.839202 500.000000 500.000000 500.000000 500.000000 500.000000 500.000000 500.000000 500.000000 500.000000 500.000000 500.000000 500.000000 500.000000 500.000000 500.000000 500.000000 500.000000 500.000000
500.000000 500.000000 500.000000 500.000000 500.000000 500.000000 500.000000 500.000000 500.000000 500.000000 500.000000 500.000000 500.000000 500.000000 500.000000 500.000000 500.000000 500.000000 474.019238 431.079756 406.325030 387.084102 370.868284 356.647288 343.875050 332.220383 321.464289 311.452924 302.073246 293.239269 284.883752 276.952920 269.402949 262.197561 255.306314 248.703363 242.366539 236.276660 230.416989 224.772821 219.331156 214.080431 209.010309 204.111507 199.375650 194.795151 190.363116 186.073257 181.919821 177.897532 174.001534 170.227351 166.570847 163.028191 159.595828 156.270455 153.048995 149.928579 146.906528 143.980338 141.147663 138.406305 135.754204 133.189422 130.710141 128.314649 126.001337 123.768688 121.615275 119.539752 117.540852 115.617378 113.768204 111.992268 110.288568 108.656161 107.094159 105.601724 104.178070 102.822458 101.534192 100.312622 99.157138 98.067170 97.042186 96.081691 95.185228 94.352370 93.582727 92.875940 92.231683 91.649660 91.129605 90.671281 90.274482 89.939029 89.664771 89.451586 89.299379 89.208082 89.177654 89.208082 89.299379 89.451586 89.664771 89.939029 90.274482 90.671281 91.129605 91.649660 92.231683 92.875940 93.582727 94.352370 95.185228 96.081691 97.042186 98.067170 99.157138 100.312622 101.534192 102.822458 104.178070 105.601724 107.094159 108.656161 110.288568 111.992268 113.768204 115.617378 117.540852 119.539752 121.615275 123.768688 126.001337 128.314649 130.710141 133.189422 135.754204 138.406305 141.147663 143.980338 146.906528 149.928579 153.048995 156.270455 159.595828 163.028191 166.570847 170.227351 174.001534 177.897532 181.919821 186.073257 190.363116 194.795151 199.375650 204.111507 209.010309 214.080431 219.331156 224.772821 230.416989 236.276660 242.366539 248.703363 255.306314 262.197561 269.402949 276.952920 284.883752 293.239269 302.073246 311.452924 321.464289 332.220383 343.875050 356.647288 370.868284 387.084102 406.325030 431.079756 474.019238 500.000000 500.000000 500.000000 500.000000 500.000000 500.000000 500.000000 500.000000 500.000000 500.000000 500.000000 500.000000 500.000000 500.000000 500.000000 500.000000 500.000000 500.000000
500.000000 500.000000 500.000000 500.000000 500.000000 500.000000 500.000000 500.000000 500.000000 500.000000 500.000000 500.000000 500.000000 500.000000 500.000000 500.000000 500.000000 500.000000 500.000000 456.698730 423.188543 400.626965 382.526599 367.052642 353.371217 341.018869 329.706136 319.237725 309.474411 300.312745 291.673333 283.493649 275.723385 268.321343 261.253272 254.490326 248.007937 241.784973 235.803104 230.046300 224.500454 219.153067 213.993007 209.010309 204.196011 199.542016 195.040986 190.686243 186.471692 182.391751 178.441296 174.615612 170.910347 167.321476 163.845274 160.478278 157.217270 154.059254 151.001433 148.041196 145.176100 142.403859 139.722329 137.129500 134.623482 132.202501 129.864890 127.609076 125.433584 123.337021 121.318075 119.375513 117.508170 115.714950 113.994819 112.346804 110.769991 109.263516 107.826569 106.458388 105.158260 103.925512 102.759519 101.659693 100.625489 99.656398 98.751947 97.911701 97.135258 96.422250 95.772341 95.185228 94.660636 94.198324 93.798080 93.459719 93.183088 92.968060 92.814539 92.722453 92.691763 92.722453 92.814539 92.968060 93.183088 93.459719 93.798080 94.198324 94.660636 95.185228 95.772341 96.422250 97.135258 97.911701 98.751947 99.656398 100.625489 101.659693 102.759519 103.925512 105.158260 106.458388 107.826569 109.263516 110.769991 112.346804 113.994819 115.714950 117.508170 119.375513 121.318075 123.337021 125.433584 127.609076 129.864890 132.202501 134.623482 137.129500 139.722329 142.403859 145.176100 148.041196 151.001433 154.059254 157.217270 160.478278 163.845274 167.321476 170.910347 174.615612 178.441296 182.391751 186.471692 190.686243 195.040986 199.542016 204.196011 209.010309 213.993007 219.153067 224.500454 230.046300 235.803104 241.784973 248.007937 254.490326 261.253272 268.321343 275.723385 283.493649 291.673333 300.312745 309.474411 319.237725 329.706136 341.018869 353.371217 367.052642 382.526599 400.626965 423.188543 456.698730 500.000000 500.000000 500.000000 500.000000 500.000000 500.000000 500.000000 500.000000 500.000000 500.000000 500.000000 500.000000 500.000000 500.000000 500.000000 500.000000 500.000000 500.000000 500.000000
500.000000 500.000000 500.000000 500.000000 500.000000 500.000000 500.000000 500.000000 500.000000 500.000000 500.000000 500.000000 500.000000 500.000000 500.000000 500.000000 500.000000 500.000000 500.000000 500.000000 445.456439 416.633340 395.716732 378.550422 363.709868 350.500836 338.522447 327.518117 317.311741 307.776172 298.816005 290.357447 282.342011 274.722393 267.459681 260.521400 253.880111 247.512377 241.397989 235.519377 229.861147 224.409724 219.153067 214.080431 209.182188 204.449666 199.875026 195.451153 191.171569 187.030353 183.022083 179.141776 175.384843 171.747049 168.224473 164.813485 161.510709 158.313009 155.217460 152.221335 149.322085 146.517327 143.804829 141.182498 138.648371 136.200605 133.837468 131.557331 129.358664 127.240024 125.200053 123.237475 121.351086 119.539752 117.802407 116.138046 114.545723 113.024549 111.573688 110.192355 108.879814 107.635374 106.458388 105.348255 104.304410 103.326331 102.413531 101.565564 100.782014 100.062505 99.406690 98.814257 98.284927 97.818449 97.414605 97.073208 96.794097 96.577145 96.422250 96.329342 96.298378 96.329342 96.422250 96.577145 96.794097 97.073208 97.414605 97.818449 98.284927 98.814257 99.406690 100.062505 100.782014 101.565564 102.413531 103.326331 104.304410 105.348255 106.458388 107.635374 108.879814 110.192355 111.573688 113.024549 114.545723 116.138046 117.802407 119.539752 121.351086 123.237475 125.200053 127.240024 129.358664 131.557331 133.837468 136.200605 138.648371 141.182498 143.804829 146.517327 149.322085 152.221335 155.217460 158.313009 161.510709 164.813485 168.224473 171.747049 175.384843 179.141776 183.022083 187.030353 191.171569 195.451153 199.875026 204.449666 209.182188 214.080431 219.153067 224.409724 229.861147 235.519377 241.397989 247.512377 253.880111 260.521400 267.459681 274.722393 282.342011 290.357447 298.816005 307.776172 317.311741 327.518117 338.522447 350.500836 363.709868 378.550422 395.716732 416.633340 445.456439 500.000000 500.000000 500.000000 500.000000 500.000000 500.000000 500.000000 500.000000 500.000000 500.000000 500.000000 500.000000 500.000000 500.000000 500.000000 500.000000 500.000000 500.000000 500.000000 500.000000
500.000000 500.000000 500.000000 500.000000 500.000000 500.000000 500.000000 500.000000 500.000000 500.000000 500.000000 500.000000 500.000000 500.000000 500.000000 500.000000 500.000000 500.000000 500.000000 500.000000 500.000000 436.952399 411.118056 391.487328 375.100040 360.805891 348.013158 336.369318 325.644042 315.676914 306.350833 297.577175 289.286925 281.425070 273.946909 266.815524 260.000000 253.474139 247.215507 241.204714 235.424869 229.861147 224.500454 219.331156 214.342863 209.526249 204.872909 200.375235 196.026317 191.819858 187.750100 183.811765 180.000000 176.310334 172.738637 169.281086 165.934138 162.694500 159.559109 156.525110 153.589838 150.750805 148.005682 145.352287 142.788578 140.312636 137.922660 135.616960 133.393944 131.252119 129.190076 127.206491 125.300120 123.469789 121.714394 120.032896 118.424319 116.887745 115.422310 114.027203 112.701665 111.444985 110.256495 109.135573 108.081641 107.094159 106.172627 105.316583 104.525601 103.799293 103.137303 102.539310 102.005025 101.534192 101.126586 100.782014 100.500313 100.281349 100.125020 100.031251 100.000000 100.031251 100.125020 100.281349 100.500313 100.782014 101.126586 101.534192 102.005025 102.539310 103.137303 103.799293 104.525601 105.316583 106.172627 107.094159 108.081641 109.135573 110.256495 111.444985 112.701665 114.027203 115.422310 116.887745 118.424319 120.032896 121.714394 123.469789 125.300120 127.206491 129.190076 131.252119 133.393944 135.616960 137.922660 140.312636 142.788578 145.352287 148.005682 150.750805 153.589838 156.525110 159.559109 162.694500 165.934138 169.281086 172.738637 176.310334 180.000000 183.811765 187.750100 191.819858 196.026317 200.375235 204.872909 209.526249 214.342863 219.331156 224.500454 229.861147 235.424869 241.204714 247.215507 253.474139 260.000000 266.815524 273.946909 281.425070 289.286925 297.577175 306.350833 315.676914 325.644042 336.369318 348.013158 360.805891 375.100040 391.487328 411.118056 436.952399 500.000000 500.000000 500.000000 500.000000 500.000000 500.000000 500.000000 500.000000 500.000000 500.000000 500.000000 500.000000 500.000000 500.000000 500.000000 500.000000 500.000000 500.000000 500.000000 500.000000 500.000000
500.000000 500.000000 500.000000 500.000000 500.000000 500.000000 500.000000 500.000000 500.000000 500.000000 500.000000 500.000000 500.000000 500.000000 500.000000 500.000000 500.000000 500.000000 500.000000 500.000000 500.000000 469.177930 430.178800 406.458565 387.861693 372.132881 358.313727 345.889650 334.546079 324.073879 314.325554 305.192403 296.591544 288.458042 280.739881 273.394616 266.387072 259.687703 253.271404 247.116628 241.204714 235.519377 230.046300 224.772821 219.687674 214.780786 210.043107 205.466470 201.043481 196.767416 192.632142 188.632050 184.761995 181.017242 177.393428 173.886523 170.492792 167.208774 164.031251 160.957230 157.983919 155.108713 152.329179 149.643039 147.048162 144.542548 142.124323 139.791727 137.543106 135.376907 133.291669 131.286019 129.358664 127.508389 125.734052 124.034576 122.408951 120.856228 119.375513 117.965970 116.626814 115.357309 114.156768 113.024549 111.960054 110.962727 110.032053 109.167555 108.368796 107.635374 106.966923 106.363111 105.823644 105.348255 104.936714 104.588822 104.304410 104.083342 103.925512 103.830844 103.799293 103.830844 103.925512 104.083342 104.304410 104.588822 104.936714 105.348255 105.823644 106.363111 106.966923 107.635374 108.368796 109.167555 110.032053 110.962727 111.960054 113.024549 114.156768 115.357309 116.626814 117.965970 119.375513 120.856228 122.408951 124.034576 125.734052 127.508389 129.358664 131.286019 133.291669 135.376907 137.543106 139.791727 142.124323 144.542548 147.048162 149.643039 152.329179 155.108713 157.983919 160.957230 164.031251 167.208774 170.492792 173.886523 177.393428 181.017242 184.761995 188.632050 192.632142 196.767416 201.043481 205.466470 210.043107 214.780786 219.687674 224.772821 230.046300 235.519377 241.204714 247.116628 253.271404 259.687703 266.387072 273.394616 280.739881 288.458042 296.591544 305.192403 314.325554 324.073879 334.546079 345.889650 358.313727 372.132881 387.861693 406.458565 430.178800 469.177930 500.000000 500.000000 500.000000 500.000000 500.000000 500.000000 500.000000 500.000000 500.000000 500.000000 500.000000 500.000000 500.000000 500.000000 500.000000 500.000000 500.000000 500.000000 500.000000 500.000000 500.000000
500.000000 500.000000 500.000000 500.000000 500.000000 500.000000 500.000000 500.000000 500.000000 500.000000 500.000000 500.000000 500.000000 500.000000 500.000000 500.000000 500.000000 500.000000 500.000000 500.000000 500.000000 500.000000 457.573593 424.667404 402.532057 384.782814 369.615952 356.211962 344.115427 333.041921 322.799549 313.251506 304.296142 295.855443 287.867966 280.284275 273.063886 266.173141 259.583694 253.271404 247.215507 241.397989 235.803104 230.416989 225.227367 220.223303 215.395011 210.733687 206.231384 201.880896 197.675671 193.609726 189.677587 185.874229 182.195028 178.635721 175.192365 171.861310 168.639169 165.522796 162.509259 159.595828 156.779954 154.059254 151.431499 148.894603 146.446609 144.085684 141.810106 139.618258 137.508621 135.479767 133.530356 131.659125 129.864890 128.146534 126.503012 124.933339 123.436592 122.011905 120.658465 119.375513 118.162338 117.018277 115.942713 114.935070 113.994819 113.121466 112.314561 111.573688 110.898471 110.288568 109.743674 109.263516 108.847856 108.496488 108.209240 107.985970 107.826569 107.730960 107.699095 107.730960 107.826569 107.985970 108.209240 108.496488 108.847856 109.263516 109.743674 110.288568 110.898471 111.573688 112.314561 113.121466 113.994819 114.935070 115.942713 117.018277 118.162338 119.375513 120.658465 122.011905 123.436592 124.933339 126.503012 128.146534 129.864890 131.659125 133.530356 135.479767 137.508621 139.618258 141.810106 144.085684 146.446609 148.894603 151.431499 154.059254 156.779954 159.595828 162.509259 165.522796 168.639169 171.861310 175.192365 178.635721 182.195028 185.874229 189.677587 193.609726 197.675671 201.880896 206.231384 210.733687 215.395011 220.223303 225.227367 230.416989 235.803104 241.397989 247.215507 253.271404 259.583694 266.173141 273.063886 280.284275 287.867966 295.855443 304.296142 313.251506 322.799549 333.041921 344.115427 356.211962 369.615952 384.782814 402.532057 424.667404 457.573593 500.000000 500.000000 500.000000 500.000000 500.000000 500.000000 500.000000 500.000000 500.000000 500.000000 500.000000 500.000000 500.000000 500.000000 500.000000 500.000000 500.000000 500.000000 500.000000 500.000000 500.000000 500.000000
500.000000 500.000000 500.000000 500.000000 500.000000 500.000000 500.000000 500.000000 500.000000 500.000000 500.000000 500.000000 500.000000 500.000000 500.000000 500.000000 500.000000 500.000000 500.000000 500.000000 500.000000 500.000000 500.000000 449.502475 420.156403 399.252792 382.207810 367.523587 354.483678 342.678673 331.848283 321.814703 312.450007 303.658461 295.366181 287.514706 280.056826 272.953749 266.173141 259.687703 253.474139 247.512377 241.784973 236.276660 230.973979 225.864997 220.939075 216.186681 211.599237 207.168991 202.888910 198.752593 194.754197 190.888370 187.150196 183.535152 180.039065 176.658076 173.388610 170.227351 167.171215 164.217332 161.363026 158.605800 155.943319 153.373400 150.893999 148.503201 146.199209 143.980338 141.845006 139.791727 137.819106 135.925832 134.110672 132.372471 130.710141 129.122662 127.609076 126.168487 124.800053 123.502988 122.276556 121.120072 120.032896 119.014436 118.064142 117.181505 116.366060 115.617378 114.935070 114.318784 113.768204 113.283049 112.863073 112.508065 112.217845 111.992268 111.831222 111.734627 111.702434 111.734627 111.831222 111.992268 112.217845 112.508065 112.863073 113.283049 113.768204 114.318784 114.935070 115.617378 116.366060 117.181505 118.064142 119.014436 120.032896 121.120072 122.276556 123.502988 124.800053 126.168487 127.609076 129.122662 130.710141 132.372471 134.110672 135.925832 137.819106 139.791727 141.845006 143.980338 146.199209 148.503201 150.893999 153.373400 155.943319 158.605800 161.363026 164.217332 167.171215 170.227351 173.388610 176.658076 180.039065 183.535152 187.150196 190.888370 194.754197 198.752593 202.888910 207.168991 211.599237 216.186681 220.939075 225.864997 230.973979 236.276660 241.784973 247.512377 253.474139 259.687703 266.173141 272.953749 280.056826 287.514706 295.366181 303.658461 312.450007 321.814703 331.848283 342.678673 354.483678 367.523587 382.207810 399.252792 420.156403 449.502475 500.000000 500.000000 500.000000 500.000000 500.000000 500.000000 500.000000 500.000000 500.000000 500.000000 500.000000 500.000000 500.000000 500.000000 500.000000 500.000000 500.000000 500.000000 500.000000 500.000000 500.000000 500.000000 500.000000
500.000000 500.000000 500.000000 500.000000 500.000000 500.000000 500.000000 500.000000 500.000000 500.000000 500.000000 500.000000 500.000000 500.000000 500.000000 500.000000 500.000000 500.000000 500.000000 500.000000 500.000000 500.000000 500.000000 500.000000 443.431458 416.483535 396.559196 380.104212 365.835921 353.115692 341.570205 330.958585 321.114562 311.917571 303.276844 295.121988 287.397084 280.056826 273.063886 266.387072 260.000000 253.880111 248.007937 242.366539 236.941071 231.718431 226.686993 221.836379 217.157288 212.641339 208.280957 204.069265 200.000000 196.067442 192.266349 188.591908 185.039685 181.605591 178.285841 175.076932 171.975611 168.978853 166.083843 163.287957 160.588745 157.983919 155.471336 153.048995 150.715016 148.467640 146.305216 144.226195 142.229124 140.312636 138.475450 136.716364 135.034248 133.428043 131.896754 130.439450 129.055260 127.743368 126.503012 125.333482 124.234115 123.204299 122.243465 121.351086 120.526681 119.769807 119.080061 118.457080 117.900537 117.410141 116.985640 116.626814 116.333478 116.105483 115.942713 115.845083 115.812546 115.845083 115.942713 116.105483 116.333478 116.626814 116.985640 117.410141 117.900537 118.457080 119.080061 119.769807 120.526681 121.351086 122.243465 123.204299 124.234115 125.333482 126.503012 127.743368 129.055260 130.439450 131.896754 133.428043 135.034248 136.716364 138.475450 140.312636 142.229124 144.226195 146.305216 148.467640 150.715016 153.048995 155.471336 157.983919 160.588745 163.287957 166.083843 168.978853 171.975611 175.076932 178.285841 181.605591 185.039685 188.591908 192.266349 196.067442 200.000000 204.069265 208.280957 212.641339 217.157288 221.836379 226.686993 231.718431 236.941071 242.366539 248.007937 253.880111 260.000000 266.387072 273.063886 280.056826 287.397084 295.121988 303.276844 311.917571 321.114562 330.958585 341.570205 353.115692 365.835921 380.104212 396.559196 416.483535 443.431458 500.000000 500.000000 500.000000 500.000000 500.000000 500.000000 500.000000 500.000000 500.000000 500.000000 500.000000 500.000000 500.000000 500.000000 500.000000 500.000000 500.000000 500.000000 500.000000 500.000000 500.000000 500.000000 500.000000 500.000000
500.000000 500.000000 500.000000 500.000000 500.000000 500.000000 500.000000 500.000000 500.000000 500.000000 500.000000 500.000000 500.000000 500.000000 500.000000 500.000000 500.000000 500.000000 500.000000 500.000000 500.000000 500.000000 500.000000 500.000000 500.000000 438.762756 413.541918 394.406440 378.447542 364.537828 352.098005 340.783167 330.368045 320.695789 311.651918 303.149803 295.121988 287.514706 280.284275 273.394616 266.815524 260.521400 254.490326 248.703363 243.144009 237.797788 232.651912 227.695024 222.916980 218.308680 213.861921 209.569285 205.424034 201.420027 197.551657 193.813782 190.201679 186.710996 183.337719 180.078135 176.928800 173.886523 170.948332 168.111464 165.373342 162.731561 160.183873 157.728178 155.362509 153.085025 150.893999 148.787813 146.764951 144.823987 142.963587 141.182498 139.479543 137.853621 136.303698 134.828807 133.428043 132.100557 130.845561 129.662316 128.550138 127.508389 126.536481 125.633869 124.800053 124.034576 123.337021 122.707010 122.144207 121.648312 121.219061 120.856228 120.559623 120.329090 120.164509 120.065795 120.032896 120.065795 120.164509 120.329090 120.559623 120.856228 121.219061 121.648312 122.144207 122.707010 123.337021 124.034576 124.800053 125.633869 126.536481 127.508389 128.550138 129.662316 130.845561 132.100557 133.428043 134.828807 136.303698 137.853621 139.479543 141.182498 142.963587 144.823987 146.764951 148.787813 150.893999 153.085025 155.362509 157.728178 160.183873 162.731561 165.373342 168.111464 170.948332 173.886523 176.928800 180.078135 183.337719 186.710996 190.201679 193.813782 197.551657 201.420027 205.424034 209.569285 213.861921 218.308680 222.916980 227.695024 232.651912 237.797788 243.144009 248.703363 254.490326 260.521400 266.815524 273.394616 280.284275 287.514706 295.121988 303.149803 311.651918 320.695789 330.368045 340.783167 352.098005 364.537828 378.447542 394.406440 413.541918 438.762756 500.000000 500.000000 500.000000 500.000000 500.000000 500.000000 500.000000 500.000000 500.000000 500.000000 500.000000 500.000000 500.000000 500.000000 500.000000 500.000000 500.000000 500.000000 500.000000 500.000000 500.000000 500.000000 500.000000 500.000000 500.000000
500.000000 500.000000 500.000000 500.000000 500.000000 500.000000 500.000000 500.000000 500.000000 500.000000 500.000000 500.000000 500.000000 500.000000 500.000000 500.000000 500.000000 500.000000 500.000000 500.000000 500.000000 500.000000 500.000000 500.000000 500.000000 478.205505 435.192593 411.258803 392.761947 377.219708 363.618183 351.423420 340.312806 330.073545 320.556416 311.651918 303.276844 295.366181 287.867966 280.739881 273.946909 267.459681 261.253272 255.306314 249.600319 244.119168 238.848703 233.776410 228.891166 224.183032 219.643085 215.263280 211.036334 206.955635 203.015152 199.209375 195.533253 191.982143 188.551770 185.238185 182.037738 178.947045 175.962965 173.082579 170.303170 167.622203 165.037316 162.546299 160.147091 157.837758 155.616493 153.481602 151.431499 149.464695 147.579796 145.775495 144.050565 142.403859 140.834300 139.340881 137.922660 136.578757 135.308349 134.110672 132.985014 131.930713 130.947158 130.033785 129.190076 128.415555 127.709791 127.072393 126.503012 126.001337 125.567095 125.200053 124.900013 124.666815 124.500333 124.400479 124.367201 124.400479 124.500333 124.666815 124.900013 125.200053 125.567095 126.001337 126.503012 127.072393 127.709791 128.415555 129.190076 130.033785 130.947158 131.930713 132.985014 134.110672 135.308349 136.578757 137.922660 139.340881 140.834300 142.403859 144.050565 145.775495 147.579796 149.464695 151.431499 153.481602 155.616493 157.837758 160.147091 162.546299 165.037316 167.622203 170.303170 173.082579 175.962965 178.947045 182.037738 185.238185 188.551770 191.982143 195.533253 199.209375 203.015152 206.955635 211.036334 215.263280 219.643085 224.183032 228.891166 233.776410 238.848703 244.119168 249.600319 255.306314 261.253272 267.459681 273.946909 280.739881 287.867966 295.366181 303.276844 311.651918 320.556416 330.073545 340.312806 351.423420 363.618183 377.219708 392.761947 411.258803 435.192593 478.205505 500.000000 500.000000 500.000000 500.000000 500.000000 500.000000 500.000000 500.000000 500.000000 500.000000 500.000000 500.000000 500.000000 500.000000 500.000000 500.000000 500.000000 500.000000 500.000000 500.000000 500.000000 500.000000 500.000000 500.000000 500.000000
500.000000 500.000000 500.000000 500.000000 500.000000 500.000000 500.000000 500.000000 500.000000 500.000000 500.000000 500.000000 500.000000 500.000000 500.000000 500.000000 500.000000 500.000000 500.000000 500.000000 500.000000 500.000000 500.000000 500.000000 500.000000 500.000000 470.419601 432.546312 409.584293 391.602583 376.407929 363.069361 351.087274 340.156326 330.073545 320.695789 311.917571 303.658461 295.855443 288.458042 281.425070 274.722393 268.321343 262.197561 256.330141 250.700983 245.294287 240.096172 235.094356 230.277921 225.637102 221.163130 216.848097 212.684842 208.666857 204.788212 201.043481 197.427695 193.936281 190.565031 187.310058 184.167766 181.134825 178.208142 175.384843 172.662254 170.037881 167.509399 165.074635 162.731561 160.478278 158.313009 156.234091 154.239968 152.329179 150.500358 148.752224 147.083579 145.493300 143.980338 142.543709 141.182498 139.895848 138.682965 137.543106 136.475585 135.479767 134.555066 133.700942 132.916903 132.202501 131.557331 130.981030 130.473276 130.033785 129.662316 129.358664 129.122662 128.954181 128.853129 128.819451 128.853129 128.954181 129.122662 129.358664 129.662316 130.033785 130.473276 130.981030 131.557331 132.202501 132.916903 133.700942 134.555066 135.479767 136.475585 137.543106 138.682965 139.895848 141.182498 142.543709 143.980338 145.493300 147.083579 148.752224 150.500358 152.329179 154.239968 156.234091 158.313009 160.478278 162.731561 165.074635 167.509399 170.037881 172.662254 175.384843 178.208142 181.134825 184.167766 187.310058 190.565031 193.936281 197.427695 201.043481 204.788212 208.666857 212.684842 216.848097 221.163130 225.637102 230.277921 235.094356 240.096172 245.294287 250.700983 256.330141 262.197561 268.321343 274.722393 281.425070 288.458042 295.855443 303.658461 311.917571 320.695789 330.073545 340.156326 351.087274 363.069361 376.407929 391.602583 409.584293 432.546312 470.419601 500.000000 500.000000 500.000000 500.000000 500.000000 500.000000 500.000000 500.000000 500.000000 500.000000 500.000000 500.000000 500.000000 500.000000 500.000000 500.000000 500.000000 500.000000 500.000000 500.000000 500.000000 500.000000 500.000000 500.000000 500.000000 500.000000
500.000000 500.000000 500.000000 500.000000 500.000000 500.000000 500.000000 500.000000 500.000000 500.000000 500.000000 500.000000 500.000000 500.000000 500.000000 500.000000 500.000000 500.000000 500.000000 500.000000 500.000000 500.000000 500.000000 500.000000 500.000000 500.000000 500.000000 465.721727 430.717968 408.484974 390.912879 376.004032 362.886908 351.087274 340.312806 330.368045 321.114562 312.450007 304.296142 296.591544 289.286925 282.342011 275.723385 269.402949 263.356809 257.564442 252.008065 246.672149 241.543040 236.608656 231.858246 227.282197 222.871871 218.619475 214.517952 210.560887 206.742434 203.057245 199.500416 196.067442 192.754170 189.556768 186.471692 183.495656 180.625612 177.858727 175.192365 172.624069 170.151550 167.772668 165.485426 163.287957 161.178513 159.155461 157.217270 155.362509 153.589838 151.898003 150.285831 148.752224 147.296158 145.916676 144.612887 143.383960 142.229124 141.147663 140.138916 139.202273 138.337174 137.543106 136.819604 136.166247 135.582657 135.068500 134.623482 134.247351 133.939896 133.700942 133.530356 133.428043 133.393944 133.428043 133.530356 133.700942 133.939896 134.247351 134.623482 135.068500 135.582657 136.166247 136.819604 137.543106 138.337174 139.202273 140.138916 141.147663 142.229124 143.383960 144.612887 145.916676 147.296158 148.752224 150.285831 151.898003 153.589838 155.362509 157.217270 159.155461 161.178513 163.287957 165.485426 167.772668 170.151550 172.624069 175.192365 177.858727 180.625612 183.495656 186.471692 189.556768 192.754170 196.067442 199.500416 203.057245 206.742434 210.560887 214.517952 218.619475 222.871871 227.282197 231.858246 236.608656 241.543040 246.672149 252.008065 257.564442 263.356809 269.402949 275.723385 282.342011 289.286925 296.591544 304.296142 312.450007 321.114562 330.368045 340.312806 351.087274 362.886908 376.004032 390.912879 408.484974 430.717968 465.721727 500.000000 500.000000 500.000000 500.000000 500.000000 500.000000 500.000000 500.000000 500.000000 500.000000 500.000000 500.000000 500.000000 500.000000 500.000000 500.000000 500.000000 500.000000 500.000000 500.000000 500.000000 500.000000 500.000000 500.000000 500.000000 500.000000 500.000000
500.000000 500.000000 500.000000 500.000000 500.000000 500.000000 500.000000 500.000000 500.000000 500.000000 500.000000 500.000000 500.000000 500.000000 500.000000 500.000000 500.000000 500.000000 500.000000 500.000000 500.000000 500.000000 500.000000 500.000000 500.000000 500.000000 500.000000 500.000000 462.919008 429.643764 407.940237 390.683944 376.004032 363.069361 351.423420 340.783167 330.958585 321.814703 313.251506 305.192403 297.577175 290.357447 283.493649 276.952920 270.707610 264.734193 259.012448 253.524849 248.256082 243.192679 238.322718 233.635588 229.121799 224.772821 220.580960 216.539244 212.641339 208.881467 205.254347 201.755134 198.379377 195.122976 191.982143 188.953380 186.033441 183.219319 180.508216 177.897532 175.384843 172.967891 170.644569 168.412907 166.271068 164.217332 162.250093 160.367846 158.569187 156.852801 155.217460 153.662015 152.185394 150.786598 149.464695 148.218818 147.048162 145.951981 144.929584 143.980338 143.103657 142.299008 141.565906 140.903913 140.312636 139.791727 139.340881 138.959836 138.648371 138.406305 138.233501 138.129858 138.095316 138.129858 138.233501 138.406305 138.648371 138.959836 139.340881 139.791727 140.312636 140.903913 141.565906 142.299008 143.103657 143.980338 144.929584 145.951981 147.048162 148.218818 149.464695 150.786598 152.185394 153.662015 155.217460 156.852801 158.569187 160.367846 162.250093 164.217332 166.271068 168.412907 170.644569 172.967891 175.384843 177.897532 180.508216 183.219319 186.033441 188.953380 191.982143 195.122976 198.379377 201.755134 205.254347 208.881467 212.641339 216.539244 220.580960 224.772821 229.121799 233.635588 238.322718 243.192679 248.256082 253.524849 259.012448 264.734193 270.707610 276.952920 283.493649 290.357447 297.577175 305.192403 313.251506 321.814703 330.958585 340.783167 351.423420 363.069361 376.004032 390.683944 407.940237 429.643764 462.919008 500.000000 500.000000 500.000000 500.000000 500.000000 500.000000 500.000000 500.000000 500.000000 500.000000 500.000000 500.000000 500.000000 500.000000 500.000000 500.000000 500.000000 500.000000 500.000000 500.000000 500.000000 500.000000 500.000000 500.000000 500.000000 500.000000 500.000000 500.000000
500.000000 500.000000 500.000000 500.000000 500.000000 500.000000 500.000000 500.000000 500.000000 500.000000 500.000000 500.000000 500.000000 500.000000 500.000000 500.000000 500.000000 500.000000 500.000000 500.000000 500.000000 500.000000 500.000000 500.000000 500.000000 500.000000 500.000000 500.000000 500.000000 461.594271 429.289322 407.940237 390.912879 376.407929 363.618183 352.098005 341.570205 331.848283 322.799549 314.325554 306.350833 298.816005 291.673333 284.883752 278.414802 272.239161 266.333571 260.678041 255.255235 250.050005 245.049024 240.240496 235.613919 231.159899 226.869994 222.736587 218.752778 214.912294 211.209418 207.638922 204.196011 200.876280 197.675671 194.590439 191.617121 188.752510 185.993631 183.337719 180.782206 178.324698 175.962965 173.694928 171.518646 169.432306 167.434217 165.522796 163.696566 161.954145 160.294245 158.715661 157.217270 155.798024 154.456949 153.193137 152.005747 150.893999 149.857172 148.894603 148.005682 147.189853 146.446609 145.775495 145.176100 144.648062 144.191063 143.804829 143.489131 143.243781 143.068634 142.963587 142.928579 142.963587 143.068634 143.243781 143.489131 143.804829 144.191063 144.648062 145.176100 145.775495 146.446609 147.189853 148.005682 148.894603 149.857172 150.893999 152.005747 153.193137 154.456949 155.798024 157.217270 158.715661 160.294245 161.954145 163.696566 165.522796 167.434217 169.432306 171.518646 173.694928 175.962965 178.324698 180.782206 183.337719 185.993631 188.752510 191.617121 194.590439 197.675671 200.876280 204.196011 207.638922 211.209418 214.912294 218.752778 222.736587 226.869994 231.159899 235.613919 240.240496 245.049024 250.050005 255.255235 260.678041 266.333571 272.239161 278.414802 284.883752 291.673333 298.816005 306.350833 314.325554 322.799549 331.848283 341.570205 352.098005 363.618183 376.407929 390.912879 407.940237 429.289322 461.594271 500.000000 500.000000 500.000000 500.000000 500.000000 500.000000 500.000000 500.000000 500.000000 500.000000 500.000000 500.000000 500.000000 500.000000 500.000000 500.000000 500.000000 500.000000 500.000000 500.000000 500.000000 500.000000 500.000000 500.000000 500.000000 500.000000 500.000000 500.000000 500.000000
500.000000 500.000000 500.000000 500.000000 500.000000 500.000000 500.000000 500.000000 500.000000 500.000000 500.000000 500.000000 500.000000 500.000000 500.000000 500.000000 500.000000 500.000000 500.000000 500.000000 500.000000 500.000000 500.000000 500.000000 500.000000 500.000000 500.000000 500.000000 500.000000 500.000000 461.594271 429.643764 408.484974 391.602583 377.219708 364.537828 353.115692 342.678673 333.041921 324.073879 315.676914 307.776172 300.312745 293.239269 286.516980 280.113666 274.002212 268.159538 262.565799 257.203789 252.058475 247.116628 242.366539 237.797788 233.401050 229.167949 225.090924 221.163130 217.378345 213.730896 210.215597 206.827696 203.562823 200.416956 197.386385 194.467678 191.657658 188.953380 186.352108 183.851301 181.448591 179.141776 176.928800 174.807749 172.776835 170.834388 168.978853 167.208774 165.522796 163.919652 162.398164 160.957230 159.595828 158.313009 157.107889 155.979652 154.927544 153.950871 153.048995 152.221335 151.467362 150.786598 150.178617 149.643039 149.179533 148.787813 148.467640 148.218818 148.041196 147.934665 147.899162 147.934665 148.041196 148.218818 148.467640 148.787813 149.179533 149.643039 150.178617 150.786598 151.467362 152.221335 153.048995 153.950871 154.927544 155.979652 157.107889 158.313009 159.595828 160.957230 162.398164 163.919652 165.522796 167.208774 168.978853 170.834388 172.776835 174.807749 176.928800 179.141776 181.448591 183.851301 186.352108 188.953380 191.657658 194.467678 197.386385 200.416956 203.562823 206.827696 210.215597 213.730896 217.378345 221.163130 225.090924 229.167949 233.401050 237.797788 242.366539 247.116628 252.058475 257.203789 262.565799 268.159538 274.002212 280.113666 286.516980 293.239269 300.312745 307.776172 315.676914 324.073879 333.041921 342.678673 353.115692 364.537828 377.219708 391.602583 408.484974 429.643764 461.594271 500.000000 500.000000 500.000000 500.000000 500.000000 500.000000 500.000000 500.000000 500.000000 500.000000 500.000000 500.000000 500.000000 500.000000 500.000000 500.000000 500.000000 500.000000 500.000000 500.000000 500.000000 500.000000 500.000000 500.000000 500.000000 500.000000 500.000000 500.000000 500.000000 500.000000
500.000000 500.000000 500.000000 500.000000 500.000000 500.000000 500.000000 500.000000 500.000000 500.000000 500.000000 500.000000 500.000000 500.000000 500.000000 500.000000 500.000000 500.000000 500.000000 500.000000 500.000000 500.000000 500.000000 500.000000 500.000000 500.000000 500.000000 500.000000 500.000000 500.000000 500.000000 462.919008 430.717968 409.584293 392.761947 378.447542 365.835921 354.483678 344.115427 334.546079 325.644042 317.311741 309.474411 302.073246 295.060985 288.398960 282.055053 276.002232 270.217494 264.681067 259.375812 254.286752 249.400718 244.706052 240.192379 235.850421 231.671843 227.649123 223.775454 220.044646 216.451062 212.989547 209.655377 206.444213 203.352061 200.375235 197.510331 194.754197 192.103914 189.556768 187.110243 184.761995 182.509843 180.351756 178.285841 176.310334 174.423588 172.624069 170.910347 169.281086 167.735045 166.271068 164.888078 163.585078 162.361140 161.215408 160.147091 159.155461 158.239850 157.399650 156.634306 155.943319 155.326241 154.782677 154.312280 153.914750 153.589838 153.337340 153.157096 153.048995 153.012969 153.048995 153.157096 153.337340 153.589838 153.914750 154.312280 154.782677 155.326241 155.943319 156.634306 157.399650 158.239850 159.155461 160.147091 161.215408 162.361140 163.585078 164.888078 166.271068 167.735045 169.281086 170.910347 172.624069 174.423588 176.310334 178.285841 180.351756 182.509843 184.761995 187.110243 189.556768 192.103914 194.754197 197.510331 200.375235 203.352061 206.444213 209.655377 212.989547 216.451062 220.044646 223.775454 227.649123 231.671843 235.850421 240.192379 244.706052 249.400718 254.286752 259.375812 264.681067 270.217494 276.002232 282.055053 288.398960 295.060985 302.073246 309.474411 317.311741 325.644042 334.546079 344.115427 354.483678 365.835921 378.447542 392.761947 409.584293 430.717968 462.919008 500.000000 500.000000 500.000000 500.000000 500.000000 500.000000 500.000000 500.000000 500.000000 500.000000 500.000000 500.000000 500.000000 500.000000 500.000000 500.000000 500.000000 500.000000 500.000000 500.000000 500.000000 500.000000 500.000000 500.000000 500.000000 500.000000 500.000000 500.000000 500.000000 500.000000 500.000000
500.000000 500.000000 500.000000 500.000000 500.000000 500.000000 500.000000 500.000000 500.000000 500.000000 500.000000 500.000000 500.000000 500.000000 500.000000 500.000000 500.000000 500.000000 500.000000 500.000000 500.000000 500.000000 500.000000 500.000000 500.000000 500.000000 500.000000 500.000000 500.000000 500.000000 500.000000 500.000000 465.721727 432.546312 411.258803 394.406440 380.104212 367.523587 356.211962 345.889650 336.369318 327.518117 319.237725 311.452924 304.104620 297.145372 290.536399 284.245510 278.245631 272.513737 267.030045 261.777415 256.740879 251.907275 247.264961 242.803577 238.513863 234.387500 230.416989 226.595538 222.916980 219.375696 215.966551 212.684842 209.526249 206.486798 203.562823 200.750940 198.048017 195.451153 192.957658 190.565031 188.270951 186.073257 183.969938 181.959122 180.039065 178.208142 176.464840 174.807749 173.235559 171.747049 170.341085 169.016617 167.772668 166.608338 165.522796 164.515276 163.585078 162.731561 161.954145 161.252306 160.625576 160.073537 159.595828 159.192136 158.862198 158.605800 158.422776 158.313009 158.276428 158.313009 158.422776 158.605800 158.862198 159.192136 159.595828 160.073537 160.625576 161.252306 161.954145 162.731561 163.585078 164.515276 165.522796 166.608338 167.772668 169.016617 170.341085 171.747049 173.235559 174.807749 176.464840 178.208142 180.039065 181.959122 183.969938 186.073257 188.270951 190.565031 192.957658 195.451153 198.048017 200.750940 203.562823 206.486798 209.526249 212.684842 215.966551 219.375696 222.916980 226.595538 230.416989 234.387500 238.513863 242.803577 247.264961 251.907275 256.740879 261.777415 267.030045 272.513737 278.245631 284.245510 290.536399 297.145372 304.104620 311.452924 319.237725 327.518117 336.369318 345.889650 356.211962 367.523587 380.104212 394.406440 411.258803 432.546312 465.721727 500.000000 500.000000 500.000000 500.000000 500.000000 500.000000 500.000000 500.000000 500.000000 500.000000 500.000000 500.000000 500.000000 500.000000 500.000000 500.000000 500.000000 500.000000 500.000000 500.000000 500.000000 500.000000 500.000000 500.000000 500.000000 500.000000 500.000000 500.000000 500.000000 500.000000 500.000000 500.000000
