ncols        170
nrows        31
xllcorner    2783870
yllcorner    1184900
cellsize     10.000000000000
NODATA_value  -9999
1794.73974609375 1795.0247802734375 1796.5645751953125 1797.4287109375 1797.1898193359375 1795.1907958984375 1789.447998046875 1781.96484375 1774.52392578125 1771.8359375 1776.3177490234375 1778.6383056640625 1778.7730712890625 1777.9730224609375 1775.8804931640625 1772.9737548828125 1768.148193359375 1761.7452392578125 1755.0728759765625 1748.0435791015625 1742.509765625 1737.049072265625 1733.625 1730.6658935546875 1729.31005859375 1727.9547119140625 1724.223388671875 1722.5626220703125 1721.061279296875 1717.88330078125 1715.1064453125 1711.77294921875 1711.7454833984375 1709.54638671875 1705.790771484375 1702.4130859375 1700.87744140625 1698.4515380859375 1695.10888671875 1693.33837890625 1694.1202392578125 1695.4609375 1694.9967041015625 1691.615966796875 1692.2293701171875 1691.63623046875 1690.186279296875 1688.436767578125 1687.1773681640625 1686.3634033203125 1686.3128662109375 1682.7384033203125 1679.5009765625 1675.3466796875 1672.3419189453125 1669.69189453125 1667.75 1666.165771484375 1664.314208984375 1661.10791015625 1658.6534423828125 1655.5384521484375 1654.4296875 1655.3514404296875 1656.048828125 1655.2841796875 1655.439697265625 1655.592529296875 1655.1702880859375 1655.1063232421875 1654.00439453125 1653.119384765625 1651.200927734375 1649.0404052734375 1647.5640869140625 1645.1650390625 1642.809326171875 1640.9920654296875 1639.337158203125 1638.3043212890625 1636.652099609375 1633.6153564453125 1631.651123046875 1628.618896484375 1626.92041015625 1625.067138671875 1622.9547119140625 1620.5782470703125 1618.7821044921875 1616.99462890625 1615.5301513671875 1613.807373046875 1612.569091796875 1610.6728515625 1609.2509765625 1607.3201904296875 1606.0003662109375 1604.8232421875 1603.2877197265625 1601.3121337890625 1599.9195556640625 1598.8551025390625 1597.680908203125 1596.16357421875 1594.93017578125 1593.7879638671875 1592.9630126953125 1592.1185302734375 1591.449462890625 1590.9510498046875 1590.131103515625 1588.97216796875 1588.4434814453125 1588.4383544921875 1587.458984375 1589.0184326171875 1589.0078125 1589.7767333984375 1592.33056640625 1594.5238037109375 1598.1329345703125 1602.6131591796875 1609.2696533203125 1614.0172119140625 1617.496826171875 1620.16015625 1621.8179931640625 1624.7188720703125 1629.5765380859375 1633.610107421875 1638.446533203125 1645.2200927734375 1654.2152099609375 1665.199951171875 1671.455810546875 1676.0599365234375 1681.7623291015625 1685.3065185546875 1687.394775390625 1689.9951171875 1691.31494140625 1695.765869140625 1701.5694580078125 1711.49609375 1716.1767578125 1716.5328369140625 1718.684814453125 1722.1607666015625 1726.33984375 1731.2188720703125 1737.2601318359375 1740.652099609375 1744.9251708984375 1749.951171875 1755.226806640625 1760.215087890625 1764.6929931640625 1770.747802734375 1778.282958984375 1784.4600830078125 1789.5147705078125 1793.7347412109375 1799.2589111328125 1803.851806640625 1809.0537109375 1814.931640625 1821.6561279296875 1828.6732177734375 1838.7412109375 1847.6580810546875
1803.078369140625 1803.0416259765625 1804.6741943359375 1804.184814453125 1802.920166015625 1800.5167236328125 1794.451416015625 1787.4261474609375 1782.1630859375 1780.18505859375 1784.801025390625 1786.9652099609375 1786.4339599609375 1785.2630615234375 1783.8411865234375 1779.482666015625 1773.7857666015625 1766.821044921875 1758.4281005859375 1752.9117431640625 1746.3289794921875 1741.673828125 1739.390625 1737.4678955078125 1737.4415283203125 1734.8656005859375 1732.404541015625 1728.5438232421875 1726.781982421875 1724.095947265625 1721.1966552734375 1719.0140380859375 1718.3258056640625 1715.6578369140625 1712.84130859375 1710.2947998046875 1707.2138671875 1703.71435546875 1700.6510009765625 1698.5599365234375 1699.115478515625 1700.140625 1699.9251708984375 1696.112060546875 1696.0235595703125 1695.140869140625 1693.2911376953125 1692.18017578125 1690.9757080078125 1690.41455078125 1692.8837890625 1690.080322265625 1685.1710205078125 1681.3258056640625 1676.984375 1675.04052734375 1672.61279296875 1670.3775634765625 1669.2178955078125 1665.5770263671875 1662.67138671875 1659.8116455078125 1657.5255126953125 1658.1524658203125 1659.0531005859375 1659.3013916015625 1658.2823486328125 1659.1087646484375 1658.3580322265625 1657.6368408203125 1656.6517333984375 1655.8026123046875 1653.04931640625 1651.4947509765625 1649.1734619140625 1647.04443359375 1644.84326171875 1643.5938720703125 1641.57275390625 1639.375244140625 1638.13623046875 1635.765380859375 1633.431640625 1631.3114013671875 1629.1109619140625 1626.712158203125 1624.023193359375 1622.107666015625 1620.397705078125 1618.2904052734375 1616.797119140625 1615.083740234375 1613.084716796875 1611.474853515625 1609.4503173828125 1607.8681640625 1606.337646484375 1604.7828369140625 1603.269287109375 1601.9027099609375 1600.810546875 1599.0087890625 1597.3370361328125 1596.2603759765625 1595.1646728515625 1593.8790283203125 1593.037109375 1592.3248291015625 1591.76025390625 1590.912353515625 1589.8939208984375 1588.951416015625 1588.7564697265625 1588.5032958984375 1588.5389404296875 1587.6622314453125 1589.0142822265625 1589.251953125 1590.6444091796875 1591.539794921875 1594.225830078125 1600.3179931640625 1605.4322509765625 1610.2862548828125 1615.277587890625 1620.131591796875 1621.874267578125 1623.0633544921875 1626.8302001953125 1631.4757080078125 1634.9024658203125 1640.1007080078125 1646.5111083984375 1656.2447509765625 1666.4591064453125 1674.6131591796875 1679.4923095703125 1684.1368408203125 1688.163330078125 1690.656005859375 1692.0184326171875 1693.54345703125 1699.0252685546875 1704.340087890625 1709.16162109375 1711.9329833984375 1713.8997802734375 1717.4970703125 1721.864013671875 1726.6934814453125 1731.6112060546875 1736.647216796875 1741.152099609375 1746.233154296875 1751.677978515625 1757.3253173828125 1763.6463623046875 1770.291259765625 1776.9527587890625 1782.6636962890625 1787.4163818359375 1792.6695556640625 1797.4659423828125 1802.039306640625 1807.843017578125 1812.528076171875 1819.2679443359375 1826.6710205078125 1832.7271728515625 1840.1715087890625
1811.463134765625 1810.97119140625 1811.07568359375 1810.360107421875 1808.283935546875 1805.8275146484375 1799.2445068359375 1792.8052978515625 1789.6600341796875 1789.4521484375 1793.5592041015625 1794.6751708984375 1793.6905517578125 1792.6256103515625 1790.182373046875 1785.96044921875 1778.5552978515625 1769.0125732421875 1762.207763671875 1756.420166015625 1751.6890869140625 1747.4078369140625 1745.5596923828125 1743.524169921875 1744.877197265625 1742.5777587890625 1738.1324462890625 1735.7020263671875 1733.5238037109375 1729.556640625 1727.408935546875 1726.406005859375 1724.2913818359375 1721.6744384765625 1718.4764404296875 1715.71826171875 1713.40234375 1710.9619140625 1707.8841552734375 1705.130859375 1703.389404296875 1705.064453125 1703.6156005859375 1700.179931640625 1700.371337890625 1698.755859375 1696.9716796875 1696.6767578125 1695.835205078125 1695.8248291015625 1699.3455810546875 1695.0980224609375 1691.19482421875 1687.3433837890625 1683.2286376953125 1680.4549560546875 1678.6356201171875 1674.93994140625 1673.50048828125 1669.839111328125 1667.667724609375 1663.540283203125 1660.4697265625 1662.2340087890625 1662.4681396484375 1662.47802734375 1662.2005615234375 1662.4051513671875 1661.010498046875 1660.8450927734375 1659.6453857421875 1657.7947998046875 1656.0838623046875 1653.8709716796875 1651.491943359375 1648.9437255859375 1647.639892578125 1645.935302734375 1643.78466796875 1640.3948974609375 1640.15966796875 1637.692626953125 1635.264892578125 1632.205078125 1630.088134765625 1627.16943359375 1625.0274658203125 1623.0892333984375 1621.266845703125 1619.1712646484375 1617.7122802734375 1615.8345947265625 1613.8115234375 1611.6142578125 1609.7598876953125 1607.9468994140625 1606.30517578125 1604.984619140625 1603.9034423828125 1602.2689208984375 1600.4559326171875 1599.1737060546875 1598.0079345703125 1596.4654541015625 1595.626220703125 1594.27392578125 1593.43505859375 1592.544677734375 1591.8087158203125 1590.91748046875 1589.7960205078125 1589.314453125 1588.8131103515625 1588.6962890625 1588.6162109375 1588.4281005859375 1588.178466796875 1589.103759765625 1589.177978515625 1589.79345703125 1591.5625 1595.526123046875 1601.360595703125 1606.098388671875 1611.83642578125 1617.7598876953125 1622.01123046875 1622.8533935546875 1625.3846435546875 1629.6741943359375 1632.5196533203125 1636.5078125 1642.3470458984375 1649.211181640625 1655.802734375 1672.5145263671875 1677.6424560546875 1681.3660888671875 1685.549560546875 1689.68212890625 1690.8497314453125 1691.8765869140625 1695.405029296875 1699.6068115234375 1704.7293701171875 1706.8740234375 1710.156494140625 1713.4017333984375 1715.4696044921875 1722.39453125 1730.376708984375 1736.88037109375 1741.5040283203125 1746.546142578125 1751.15673828125 1756.4088134765625 1762.9085693359375 1769.4676513671875 1775.5042724609375 1779.5362548828125 1786.3797607421875 1792.29443359375 1798.110107421875 1801.571533203125 1807.007568359375 1812.2794189453125 1817.94287109375 1824.970947265625 1829.614013671875 1835.6683349609375
1819.822998046875 1819.558837890625 1818.0751953125 1816.0330810546875 1813.256591796875 1809.0345458984375 1804.3349609375 1799.119384765625 1797.2445068359375 1798.4281005859375 1800.617919921875 1801.65771484375 1801.183349609375 1799.028076171875 1794.76806640625 1790.04736328125 1783.490478515625 1774.4227294921875 1768.38427734375 1762.049560546875 1756.169677734375 1754.358642578125 1751.8465576171875 1749.611083984375 1751.0843505859375 1750.2447509765625 1745.5986328125 1743.8232421875 1739.710205078125 1737.40283203125 1733.5867919921875 1733.2041015625 1730.6043701171875 1728.1815185546875 1725.318359375 1722.2760009765625 1719.8037109375 1717.28125 1714.845947265625 1710.9068603515625 1708.3599853515625 1709.6248779296875 1708.00830078125 1704.8201904296875 1704.74560546875 1702.2498779296875 1701.297119140625 1700.7783203125 1699.7041015625 1701.09423828125 1705.78271484375 1701.5184326171875 1696.9990234375 1692.7916259765625 1688.7607421875 1686.0772705078125 1682.9210205078125 1679.76171875 1677.067138671875 1673.7969970703125 1669.8216552734375 1666.1124267578125 1663.7626953125 1664.6273193359375 1665.4283447265625 1665.9019775390625 1666.4169921875 1667.122802734375 1666.318115234375 1664.723876953125 1662.4993896484375 1660.8135986328125 1658.1009521484375 1656.5166015625 1654.1771240234375 1652.240478515625 1650.080078125 1648.410400390625 1644.60302734375 1643.875244140625 1641.2701416015625 1639.516845703125 1635.8929443359375 1633.2591552734375 1631.317138671875 1628.639404296875 1625.7445068359375 1624.25439453125 1621.887939453125 1620.3873291015625 1618.2000732421875 1616.2100830078125 1614.26416015625 1612.2769775390625 1610.4766845703125 1608.630859375 1607.1209716796875 1605.8135986328125 1603.842041015625 1602.552490234375 1601.05712890625 1599.8619384765625 1598.5643310546875 1596.9749755859375 1595.8145751953125 1594.968994140625 1593.841796875 1592.90283203125 1592.0426025390625 1591.14990234375 1589.963134765625 1589.5865478515625 1589.2000732421875 1588.9063720703125 1588.6806640625 1588.4285888671875 1587.883056640625 1588.833984375 1589.045166015625 1589.74072265625 1590.701171875 1592.958740234375 1597.2113037109375 1601.887939453125 1607.390625 1611.854736328125 1618.6136474609375 1621.0577392578125 1623.081787109375 1627.018798828125 1631.6058349609375 1634.6312255859375 1638.86865234375 1644.3990478515625 1650.207275390625 1659.0762939453125 1665.7432861328125 1673.34228515625 1680.682861328125 1684.6658935546875 1688.50341796875 1691.026123046875 1693.150390625 1695.9866943359375 1699.7811279296875 1702.837646484375 1706.3077392578125 1707.778564453125 1712.7940673828125 1721.3564453125 1728.647216796875 1734.741455078125 1739.3040771484375 1744.5091552734375 1750.0552978515625 1755.13232421875 1763.4444580078125 1768.6617431640625 1774.58056640625 1780.2479248046875 1788.2425537109375 1796.5977783203125 1801.2454833984375 1807.17822265625 1809.97216796875 1814.2840576171875 1818.648681640625 1824.328369140625 1828.604736328125 1834.1025390625
1828.325439453125 1827.565185546875 1825.17236328125 1822.4876708984375 1818.6785888671875 1814.6978759765625 1810.0611572265625 1806.227783203125 1804.7958984375 1806.5328369140625 1807.0672607421875 1809.2308349609375 1807.891845703125 1805.6434326171875 1802.1937255859375 1796.1285400390625 1788.7666015625 1782.193115234375 1771.8841552734375 1767.657958984375 1763.189697265625 1759.53955078125 1758.546875 1755.3802490234375 1757.3094482421875 1756.306640625 1753.02587890625 1749.7867431640625 1747.032470703125 1744.6192626953125 1739.9619140625 1739.2283935546875 1737.115234375 1734.978515625 1731.2039794921875 1728.1396484375 1726.390380859375 1724.0267333984375 1720.6007080078125 1717.26318359375 1713.901611328125 1713.919189453125 1711.7391357421875 1708.7755126953125 1708.4708251953125 1706.612060546875 1705.8055419921875 1705.0091552734375 1704.233154296875 1706.9193115234375 1711.805908203125 1709.48779296875 1704.107666015625 1700.09130859375 1694.79248046875 1691.334716796875 1687.0621337890625 1682.840576171875 1681.012451171875 1677.4405517578125 1673.62109375 1669.395751953125 1666.59521484375 1667.8363037109375 1669.1978759765625 1668.281982421875 1669.841064453125 1670.185791015625 1670.063720703125 1667.856201171875 1665.4119873046875 1662.978515625 1661.6116943359375 1658.607666015625 1656.0679931640625 1655.0587158203125 1653.0828857421875 1650.584716796875 1648.78955078125 1645.5927734375 1643.95654296875 1640.1790771484375 1637.291259765625 1634.1124267578125 1632.0299072265625 1629.5625 1627.4949951171875 1625.178466796875 1623.1256103515625 1621.1075439453125 1619.51513671875 1617.0267333984375 1614.7076416015625 1612.6793212890625 1610.947509765625 1609.3956298828125 1608.13916015625 1606.0869140625 1604.340576171875 1603.076904296875 1601.3310546875 1599.817626953125 1598.6199951171875 1597.6751708984375 1596.451904296875 1595.45458984375 1594.2564697265625 1593.107666015625 1592.218505859375 1591.1365966796875 1590.5888671875 1589.83935546875 1589.55029296875 1589.09765625 1588.7193603515625 1588.7025146484375 1588.694091796875 1587.8427734375 1589.277587890625 1588.985595703125 1589.090576171875 1590.9364013671875 1592.956787109375 1597.6669921875 1602.3155517578125 1606.91455078125 1612.1048583984375 1616.156005859375 1620.7138671875 1624.5811767578125 1628.76513671875 1632.6295166015625 1636.104736328125 1641.07958984375 1645.9735107421875 1653.361572265625 1660.1580810546875 1668.2569580078125 1674.2684326171875 1679.7930908203125 1685.5533447265625 1688.8775634765625 1691.8326416015625 1692.5216064453125 1694.5418701171875 1697.6710205078125 1700.633544921875 1707.01123046875 1713.1756591796875 1721.1474609375 1727.4359130859375 1732.42041015625 1737.2303466796875 1742.8480224609375 1748.85302734375 1756.894775390625 1763.04150390625 1771.4393310546875 1775.8265380859375 1783.763671875 1788.099365234375 1794.3345947265625 1802.9346923828125 1812.6256103515625 1817.6884765625 1820.353515625 1824.3779296875 1828.144775390625 1831.516357421875 1835.6634521484375
1837.4149169921875 1835.6148681640625 1834.58837890625 1830.1328125 1825.37060546875 1820.3984375 1815.6851806640625 1811.911865234375 1811.4862060546875 1812.361328125 1813.4537353515625 1814.5057373046875 1814.668212890625 1812.2193603515625 1807.8712158203125 1800.9796142578125 1794.787109375 1788.6357421875 1782.1541748046875 1776.0435791015625 1770.63330078125 1765.46142578125 1763.7310791015625 1760.83837890625 1763.8077392578125 1762.45556640625 1758.8106689453125 1756.7716064453125 1753.9190673828125 1751.08349609375 1746.8067626953125 1746.25732421875 1743.6754150390625 1741.3917236328125 1738.375732421875 1734.0072021484375 1732.4051513671875 1730.4400634765625 1726.538330078125 1722.5670166015625 1719.676025390625 1719.9478759765625 1717.24755859375 1713.894775390625 1712.5108642578125 1711.0267333984375 1709.9571533203125 1709.0972900390625 1708.31787109375 1713.3026123046875 1717.2528076171875 1714.9478759765625 1711.0076904296875 1705.335693359375 1699.4404296875 1697.76611328125 1696.3355712890625 1689.205810546875 1686.8775634765625 1683.038330078125 1679.0142822265625 1674.244384765625 1670.197509765625 1671.5543212890625 1672.8099365234375 1672.0701904296875 1673.3564453125 1673.421142578125 1672.6109619140625 1670.794677734375 1667.8970947265625 1665.9248046875 1663.903564453125 1661.334228515625 1659.637451171875 1657.809326171875 1655.3980712890625 1654.1077880859375 1650.836181640625 1647.3626708984375 1644.251953125 1641.325927734375 1638.1927490234375 1636.10009765625 1633.875732421875 1630.9412841796875 1628.6298828125 1627.1114501953125 1624.5780029296875 1622.4259033203125 1620.6986083984375 1617.877197265625 1615.815185546875 1614.4102783203125 1611.8604736328125 1610.2130126953125 1608.35107421875 1606.8363037109375 1604.9171142578125 1603.6998291015625 1602.11669921875 1600.6619873046875 1599.5538330078125 1598.200439453125 1596.8858642578125 1595.7003173828125 1594.9063720703125 1593.3447265625 1592.1048583984375 1591.744140625 1590.9024658203125 1590.2100830078125 1589.5457763671875 1589.1951904296875 1588.9306640625 1588.68408203125 1588.6351318359375 1588.8497314453125 1587.9190673828125 1589.243896484375 1589.36572265625 1589.3857421875 1590.8658447265625 1593.2530517578125 1596.8065185546875 1600.547607421875 1606.0867919921875 1610.8289794921875 1616.0933837890625 1620.4298095703125 1625.019287109375 1629.2059326171875 1632.743896484375 1636.473388671875 1641.3372802734375 1647.7816162109375 1654.696533203125 1661.6064453125 1666.8819580078125 1671.9063720703125 1677.6552734375 1683.681396484375 1686.6610107421875 1687.365478515625 1688.4949951171875 1694.458740234375 1700.4503173828125 1705.8499755859375 1712.33251953125 1718.79736328125 1724.527099609375 1730.28173828125 1736.5032958984375 1743.028564453125 1748.9505615234375 1757.0467529296875 1764.3238525390625 1771.0123291015625 1779.9208984375 1785.3077392578125 1791.430908203125 1797.3619384765625 1803.8958740234375 1811.2647705078125 1818.7742919921875 1822.563232421875 1828.669189453125 1833.9832763671875 1838.6910400390625 1842.093017578125
1847.7869873046875 1846.136962890625 1843.319091796875 1837.9859619140625 1832.3648681640625 1826.620361328125 1822.2427978515625 1819.187744140625 1817.6082763671875 1817.242431640625 1818.271240234375 1819.736083984375 1820.293212890625 1817.97021484375 1812.97802734375 1806.9713134765625 1800.447509765625 1794.82861328125 1790.366943359375 1785.500244140625 1777.771484375 1773.2762451171875 1768.2799072265625 1767.3314208984375 1770.8502197265625 1770.0303955078125 1765.343017578125 1764.4417724609375 1760.427001953125 1755.993408203125 1753.58837890625 1754.3177490234375 1750.505615234375 1747.83447265625 1743.7935791015625 1741.2117919921875 1739.228759765625 1736.169189453125 1731.981689453125 1727.576904296875 1725.398193359375 1724.9130859375 1722.47802734375 1718.74072265625 1716.388671875 1715.5621337890625 1714.6300048828125 1713.1527099609375 1714.1773681640625 1720.252197265625 1721.826416015625 1720.3760986328125 1715.7137451171875 1709.5648193359375 1704.1937255859375 1704.40478515625 1699.96630859375 1695.07421875 1694.0111083984375 1689.0755615234375 1684.240966796875 1680.00146484375 1676.215087890625 1674.502197265625 1676.4404296875 1676.2130126953125 1676.5174560546875 1677.35888671875 1675.4801025390625 1672.847900390625 1670.4969482421875 1668.474853515625 1666.51513671875 1664.9439697265625 1662.0325927734375 1660.4393310546875 1657.9466552734375 1654.970458984375 1651.068359375 1648.833740234375 1645.54248046875 1642.6483154296875 1639.8590087890625 1637.185791015625 1635.203857421875 1632.297607421875 1629.7510986328125 1627.8487548828125 1625.447265625 1622.935302734375 1620.8096923828125 1619.1348876953125 1617.052490234375 1615.145263671875 1613.3443603515625 1611.223388671875 1609.043212890625 1607.2275390625 1605.68896484375 1603.9884033203125 1602.4820556640625 1601.1611328125 1599.6053466796875 1598.6593017578125 1597.4285888671875 1596.2783203125 1595.3843994140625 1594.1395263671875 1592.605224609375 1591.9276123046875 1591.1763916015625 1590.4246826171875 1589.7657470703125 1589.3125 1589.0078125 1588.7586669921875 1588.4080810546875 1588.84912109375 1588.6878662109375 1588.2716064453125 1589.5367431640625 1589.5986328125 1589.7496337890625 1590.251220703125 1592.430908203125 1596.2294921875 1600.0615234375 1605.743408203125 1610.11767578125 1615.6082763671875 1619.5225830078125 1624.13720703125 1627.7352294921875 1632.171630859375 1636.51806640625 1642.0767822265625 1646.7315673828125 1653.646240234375 1660.20361328125 1665.458251953125 1672.377685546875 1673.180419921875 1677.4537353515625 1679.626953125 1686.4952392578125 1693.01220703125 1698.64208984375 1704.76416015625 1712.3621826171875 1717.8802490234375 1725.662109375 1731.3826904296875 1738.107421875 1743.6259765625 1750.4185791015625 1757.3753662109375 1763.6800537109375 1771.9468994140625 1778.455810546875 1784.8487548828125 1792.1007080078125 1798.720947265625 1804.841064453125 1809.9237060546875 1814.8172607421875 1818.5985107421875 1824.494873046875 1831.396728515625 1838.866455078125 1842.91650390625
1857.28076171875 1855.8341064453125 1851.050048828125 1844.6939697265625 1838.9315185546875 1834.1702880859375 1829.00537109375 1826.6815185546875 1823.9293212890625 1822.131103515625 1822.82568359375 1824.6607666015625 1825.9832763671875 1823.3985595703125 1818.5648193359375 1811.5013427734375 1806.127685546875 1801.838623046875 1798.5552978515625 1791.328857421875 1787.1351318359375 1779.380859375 1774.3101806640625 1773.9765625 1778.1378173828125 1775.4158935546875 1771.7952880859375 1770.0830078125 1766.6612548828125 1763.2440185546875 1761.3040771484375 1761.9520263671875 1757.690673828125 1753.760498046875 1750.1231689453125 1748.3399658203125 1745.663818359375 1741.2200927734375 1737.033935546875 1731.7509765625 1730.9471435546875 1730.6884765625 1725.75390625 1723.3087158203125 1721.3763427734375 1719.51806640625 1719.1663818359375 1717.624267578125 1721.34814453125 1726.894775390625 1726.354248046875 1725.6439208984375 1720.056640625 1712.568603515625 1709.215087890625 1709.362060546875 1704.359619140625 1706.269287109375 1703.5975341796875 1698.7708740234375 1690.06298828125 1686.105712890625 1684.4012451171875 1679.7037353515625 1679.7197265625 1680.3336181640625 1680.327392578125 1679.26318359375 1678.2313232421875 1675.704833984375 1673.203857421875 1671.34033203125 1669.503662109375 1666.3570556640625 1665.1160888671875 1661.63134765625 1658.7889404296875 1655.3970947265625 1652.2174072265625 1649.0634765625 1646.6317138671875 1643.43505859375 1641.156982421875 1638.2017822265625 1635.1114501953125 1632.64501953125 1630.4471435546875 1628.6658935546875 1626.484619140625 1623.18017578125 1621.9312744140625 1620.1719970703125 1617.48681640625 1615.841064453125 1613.873779296875 1611.841064453125 1609.775146484375 1607.8056640625 1605.8848876953125 1604.3153076171875 1602.52978515625 1601.4461669921875 1600.2607421875 1598.918212890625 1597.6585693359375 1596.5877685546875 1595.5555419921875 1594.1578369140625 1593.3741455078125 1592.26416015625 1591.668701171875 1590.7093505859375 1590.08349609375 1589.4805908203125 1589.155029296875 1588.973388671875 1588.8123779296875 1588.869384765625 1588.9241943359375 1588.397216796875 1589.2777099609375 1589.5528564453125 1589.76025390625 1590.4945068359375 1590.629638671875 1593.0086669921875 1595.4781494140625 1599.571044921875 1604.8109130859375 1610.8369140625 1613.9224853515625 1618.7396240234375 1622.4326171875 1627.5228271484375 1632.269775390625 1636.6708984375 1640.60205078125 1644.5047607421875 1650.1463623046875 1655.4608154296875 1660.5582275390625 1664.911865234375 1671.571533203125 1678.706787109375 1685.473876953125 1692.128173828125 1698.1495361328125 1702.8350830078125 1709.0281982421875 1716.1611328125 1724.461181640625 1731.7908935546875 1739.6632080078125 1747.759033203125 1753.8128662109375 1761.5888671875 1765.9010009765625 1771.70458984375 1778.5225830078125 1785.06396484375 1791.1090087890625 1800.8271484375 1806.0797119140625 1809.7208251953125 1814.5057373046875 1816.946533203125 1821.181884765625 1827.1600341796875 1833.0335693359375 1839.2423095703125
1866.899169921875 1863.4630126953125 1858.61669921875 1852.4066162109375 1845.5859375 1841.83349609375 1836.972412109375 1832.572998046875 1832.955078125 1832.14111328125 1831.7144775390625 1831.25 1831.5865478515625 1828.5396728515625 1823.5531005859375 1818.1328125 1812.0177001953125 1807.3231201171875 1802.22412109375 1798.75390625 1792.8812255859375 1784.7401123046875 1781.4144287109375 1782.306396484375 1784.4986572265625 1782.092041015625 1779.7474365234375 1776.888427734375 1774.203125 1769.435302734375 1768.636474609375 1768.63134765625 1765.560546875 1760.4725341796875 1758.5494384765625 1754.3304443359375 1751.8167724609375 1746.82080078125 1741.69873046875 1735.924072265625 1736.5489501953125 1735.47998046875 1730.5465087890625 1727.054443359375 1724.8360595703125 1724.420654296875 1722.6773681640625 1723.447021484375 1729.0806884765625 1732.7379150390625 1730.5098876953125 1728.34521484375 1720.988525390625 1715.521728515625 1714.8294677734375 1713.6522216796875 1710.8289794921875 1711.80908203125 1710.431884765625 1707.194580078125 1703.962646484375 1696.4190673828125 1690.6983642578125 1685.5965576171875 1682.7979736328125 1683.9071044921875 1684.8074951171875 1682.8843994140625 1681.3016357421875 1678.8448486328125 1676.2010498046875 1673.6171875 1671.66650390625 1669.975830078125 1666.97509765625 1663.140380859375 1659.781005859375 1656.7149658203125 1653.6329345703125 1650.4354248046875 1647.7591552734375 1644.93115234375 1641.93212890625 1638.848876953125 1635.9423828125 1633.54052734375 1630.430908203125 1628.14013671875 1626.4322509765625 1624.974609375 1622.4794921875 1620.373046875 1618.2618408203125 1616.33349609375 1614.330322265625 1612.499755859375 1610.39306640625 1608.27099609375 1606.396728515625 1604.9622802734375 1603.558349609375 1601.81689453125 1600.4317626953125 1599.2998046875 1598.290771484375 1596.89404296875 1595.649169921875 1594.5364990234375 1593.4437255859375 1592.9815673828125 1591.8980712890625 1591.09521484375 1590.2506103515625 1589.7923583984375 1589.232421875 1589.110107421875 1589.041015625 1588.90185546875 1589.0450439453125 1589.236572265625 1588.243896484375 1589.587158203125 1590.3341064453125 1590.8065185546875 1590.9306640625 1590.84619140625 1593.5076904296875 1594.6156005859375 1598.96044921875 1604.1781005859375 1609.0634765625 1613.534423828125 1618.1419677734375 1622.6324462890625 1627.764404296875 1631.4388427734375 1632.3006591796875 1635.05615234375 1638.85400390625 1648.3580322265625 1657.85498046875 1665.6083984375 1671.9310302734375 1678.9649658203125 1685.7685546875 1691.3988037109375 1696.308837890625 1701.574462890625 1710.3870849609375 1716.81787109375 1723.6920166015625 1732.720703125 1742.7825927734375 1750.4334716796875 1756.00146484375 1761.5528564453125 1766.5166015625 1771.7213134765625 1779.7725830078125 1787.0516357421875 1792.48486328125 1797.118896484375 1803.44580078125 1806.5384521484375 1812.107421875 1815.14013671875 1822.5411376953125 1826.4595947265625 1830.111328125 1834.770751953125
1874.4051513671875 1870.538330078125 1865.7279052734375 1859.0911865234375 1853.447998046875 1848.951416015625 1845.23828125 1842.8431396484375 1841.8216552734375 1840.6318359375 1839.4251708984375 1839.2314453125 1837.7994384765625 1835.0177001953125 1830.808837890625 1823.658935546875 1818.3568115234375 1812.5418701171875 1808.54248046875 1804.029052734375 1797.427001953125 1790.7169189453125 1789.679931640625 1792.8662109375 1794.52490234375 1792.0311279296875 1789.771240234375 1786.247802734375 1782.15673828125 1776.0782470703125 1776.5184326171875 1776.3863525390625 1772.9825439453125 1769.5198974609375 1767.69091796875 1762.883544921875 1757.23828125 1753.051025390625 1747.006591796875 1741.1898193359375 1741.7685546875 1739.6822509765625 1734.954833984375 1730.8955078125 1729.6190185546875 1728.6151123046875 1726.92138671875 1729.722900390625 1735.928466796875 1738.09130859375 1735.24853515625 1728.2957763671875 1723.6104736328125 1721.959228515625 1719.4168701171875 1718.439453125 1715.993408203125 1716.525390625 1714.9068603515625 1711.676025390625 1711.445068359375 1705.5355224609375 1697.921875 1691.496337890625 1687.36962890625 1687.609375 1687.1146240234375 1686.7301025390625 1684.2738037109375 1682.2418212890625 1679.8614501953125 1677.01513671875 1675.4381103515625 1671.280029296875 1666.661376953125 1663.372802734375 1660.8138427734375 1657.6180419921875 1654.651123046875 1651.34619140625 1647.9976806640625 1645.1297607421875 1642.0369873046875 1638.9608154296875 1636.4302978515625 1633.786865234375 1630.90380859375 1629.15087890625 1627.218994140625 1625.225341796875 1623.09521484375 1620.409423828125 1619.1973876953125 1616.8843994140625 1614.9129638671875 1612.6893310546875 1610.1328125 1608.5604248046875 1607.2918701171875 1605.3853759765625 1603.5643310546875 1602.4569091796875 1601.5240478515625 1600.0491943359375 1598.6461181640625 1597.356689453125 1596.1505126953125 1595.302490234375 1594.0511474609375 1593.211181640625 1591.8758544921875 1590.8773193359375 1590.4034423828125 1589.8675537109375 1589.3101806640625 1589.2086181640625 1588.9765625 1589.1636962890625 1588.86376953125 1589.0386962890625 1589.011474609375 1588.3865966796875 1589.724853515625 1590.6654052734375 1590.4095458984375 1590.4364013671875 1591.016357421875 1592.494140625 1594.4814453125 1598.13720703125 1603.6451416015625 1608.5509033203125 1614.4683837890625 1619.7545166015625 1624.54248046875 1624.6854248046875 1624.9766845703125 1629.840087890625 1639.3287353515625 1649.573486328125 1656.661865234375 1665.0633544921875 1671.765625 1677.462890625 1683.031005859375 1687.627685546875 1692.560302734375 1697.8431396484375 1707.947509765625 1715.62744140625 1723.32177734375 1732.0689697265625 1741.6817626953125 1747.1785888671875 1753.26171875 1758.688232421875 1764.8563232421875 1772.0989990234375 1776.9066162109375 1782.3616943359375 1788.9849853515625 1794.214111328125 1799.9854736328125 1804.620849609375 1809.2274169921875 1813.5369873046875 1821.6199951171875 1825.349365234375 1829.6160888671875 1834.209716796875
1883.2310791015625 1878.5382080078125 1872.2369384765625 1866.176025390625 1860.5860595703125 1855.5548095703125 1852.3568115234375 1852.8629150390625 1853.21630859375 1850.296875 1847.403564453125 1846.62548828125 1845.54345703125 1842.613037109375 1837.0006103515625 1829.74658203125 1823.578125 1818.408447265625 1814.180419921875 1808.8712158203125 1802.5501708984375 1796.6656494140625 1798.142578125 1802.101318359375 1803.616943359375 1801.4061279296875 1797.6417236328125 1793.7003173828125 1789.2064208984375 1786.5096435546875 1784.227783203125 1783.5054931640625 1780.2886962890625 1777.47900390625 1774.3818359375 1770.128173828125 1764.96875 1759.764892578125 1753.209228515625 1746.9368896484375 1747.54638671875 1744.47021484375 1739.652099609375 1735.432861328125 1733.4482421875 1732.9814453125 1731.0653076171875 1735.9180908203125 1741.867431640625 1742.7568359375 1737.3594970703125 1731.7481689453125 1728.96875 1729.063720703125 1726.8734130859375 1723.6656494140625 1721.1044921875 1721.5982666015625 1719.15087890625 1716.8084716796875 1715.69482421875 1712.5335693359375 1707.4267578125 1700.985595703125 1693.4029541015625 1692.0390625 1690.4869384765625 1689.6748046875 1687.4715576171875 1685.3187255859375 1681.50244140625 1679.1776123046875 1675.6988525390625 1671.986328125 1668.7413330078125 1665.306884765625 1662.8009033203125 1659.1356201171875 1655.53173828125 1651.8748779296875 1648.7169189453125 1645.3665771484375 1641.8282470703125 1639.0020751953125 1636.52734375 1634.344970703125 1632.4527587890625 1630.2454833984375 1628.29248046875 1625.5780029296875 1623.1319580078125 1621.8956298828125 1619.30029296875 1617.026123046875 1614.678466796875 1612.7445068359375 1610.631591796875 1608.8804931640625 1607.21142578125 1605.341064453125 1603.5081787109375 1602.2286376953125 1601.2088623046875 1600.00146484375 1598.796630859375 1597.265380859375 1596.2613525390625 1595.248779296875 1594.2579345703125 1593.131103515625 1592.310791015625 1591.3670654296875 1590.439453125 1589.7044677734375 1589.4302978515625 1589.35595703125 1589.1287841796875 1588.961669921875 1588.8807373046875 1589.0107421875 1589.149169921875 1589.110595703125 1588.5296630859375 1589.86279296875 1589.7113037109375 1589.5916748046875 1589.9844970703125 1590.9849853515625 1592.783935546875 1595.6513671875 1599.1265869140625 1604.703369140625 1609.886962890625 1616.5950927734375 1619.2515869140625 1618.3629150390625 1620.9788818359375 1629.272216796875 1636.3397216796875 1647.845947265625 1654.647216796875 1664.35791015625 1669.75927734375 1673.7701416015625 1678.3602294921875 1683.082763671875 1687.40380859375 1693.7708740234375 1705.937255859375 1713.7060546875 1723.26171875 1730.2181396484375 1737.1927490234375 1743.7879638671875 1748.2763671875 1753.9056396484375 1761.2410888671875 1768.7603759765625 1775.2364501953125 1781.48681640625 1785.840087890625 1792.442138671875 1796.6627197265625 1801.4044189453125 1805.822265625 1811.2769775390625 1818.423095703125 1824.620361328125 1830.3321533203125 1835.1802978515625
1890.6771240234375 1885.3812255859375 1879.2452392578125 1873.57275390625 1867.7635498046875 1863.5880126953125 1861.439208984375 1863.108154296875 1862.5380859375 1859.7215576171875 1856.940185546875 1855.2908935546875 1852.69091796875 1848.2601318359375 1841.7757568359375 1835.2613525390625 1828.54736328125 1823.7418212890625 1819.071533203125 1814.3280029296875 1807.861572265625 1805.2037353515625 1806.1512451171875 1810.1279296875 1811.345458984375 1809.0816650390625 1805.3468017578125 1801.82373046875 1797.531982421875 1793.9888916015625 1792.060302734375 1790.6832275390625 1787.6812744140625 1784.656494140625 1781.130615234375 1776.1319580078125 1770.968505859375 1765.9000244140625 1759.6220703125 1754.522216796875 1752.7652587890625 1750.135009765625 1743.5938720703125 1740.0465087890625 1738.23583984375 1737.4163818359375 1736.07861328125 1742.1141357421875 1747.3179931640625 1746.5994873046875 1739.5858154296875 1737.421875 1737.51611328125 1736.2130126953125 1733.90380859375 1730.56884765625 1726.49267578125 1725.486328125 1723.672119140625 1721.4854736328125 1719.8289794921875 1717.3240966796875 1713.3497314453125 1707.434326171875 1702.3978271484375 1697.6064453125 1694.6142578125 1693.5107421875 1689.0882568359375 1687.3978271484375 1684.290771484375 1680.822265625 1677.167724609375 1674.3511962890625 1670.5341796875 1666.8934326171875 1664.0369873046875 1660.5587158203125 1657.1396484375 1653.4610595703125 1649.3294677734375 1645.95068359375 1643.1630859375 1640.1231689453125 1637.5308837890625 1634.9554443359375 1633.286865234375 1630.719970703125 1628.5472412109375 1626.4478759765625 1624.0233154296875 1621.8590087890625 1619.9302978515625 1617.4169921875 1614.770263671875 1612.94775390625 1610.775390625 1609.111572265625 1607.1536865234375 1605.390625 1603.3704833984375 1602.1978759765625 1601.6976318359375 1600.5699462890625 1599.369873046875 1598.174560546875 1596.688720703125 1595.64453125 1594.5462646484375 1593.1982421875 1592.3099365234375 1591.4044189453125 1590.43701171875 1589.9425048828125 1589.6539306640625 1589.3990478515625 1589.1607666015625 1589.0023193359375 1589.0914306640625 1589.0531005859375 1589.226806640625 1589.3011474609375 1588.83544921875 1589.3475341796875 1589.865234375 1589.7923583984375 1590.0927734375 1590.2264404296875 1591.3736572265625 1592.4227294921875 1595.106689453125 1599.0184326171875 1604.5999755859375 1610.4859619140625 1612.648193359375 1613.909423828125 1619.04443359375 1625.1756591796875 1631.55126953125 1641.2542724609375 1647.3931884765625 1655.093505859375 1664.5546875 1669.64990234375 1673.9171142578125 1677.7890625 1681.6961669921875 1687.9212646484375 1702.341796875 1713.21240234375 1720.554443359375 1727.0712890625 1732.66357421875 1738.816650390625 1744.9990234375 1750.5792236328125 1755.9638671875 1761.4827880859375 1768.8778076171875 1774.133056640625 1779.53955078125 1785.2127685546875 1793.48974609375 1798.2349853515625 1802.3397216796875 1808.8717041015625 1814.535888671875 1823.6163330078125 1828.5655517578125 1832.3306884765625
1898.22412109375 1892.7510986328125 1887.362548828125 1879.3905029296875 1876.1783447265625 1872.5010986328125 1872.3291015625 1873.1240234375 1871.531494140625 1869.0760498046875 1866.168701171875 1863.4620361328125 1858.310546875 1852.1956787109375 1845.307373046875 1839.794189453125 1834.7205810546875 1829.37890625 1823.5443115234375 1818.9447021484375 1813.2503662109375 1814.708740234375 1815.747802734375 1819.087646484375 1819.2122802734375 1818.01171875 1813.1497802734375 1808.6671142578125 1803.7620849609375 1802.1607666015625 1799.786376953125 1798.058349609375 1795.010498046875 1792.1614990234375 1786.237060546875 1781.679931640625 1776.621337890625 1771.8603515625 1766.5191650390625 1760.0269775390625 1758.666748046875 1754.11083984375 1747.999267578125 1743.5006103515625 1742.18212890625 1741.1749267578125 1742.8277587890625 1748.3870849609375 1752.5751953125 1750.830078125 1745.049072265625 1745.2510986328125 1745.30712890625 1743.373291015625 1740.336181640625 1736.1519775390625 1733.4012451171875 1729.469970703125 1727.651123046875 1726.3138427734375 1724.3641357421875 1720.9969482421875 1717.9453125 1713.2603759765625 1707.9625244140625 1700.982177734375 1700.0914306640625 1694.3109130859375 1691.98876953125 1688.8367919921875 1686.0513916015625 1682.098388671875 1678.6959228515625 1675.3551025390625 1671.838623046875 1668.3704833984375 1664.36767578125 1660.99755859375 1657.2779541015625 1653.4993896484375 1649.877685546875 1646.9365234375 1644.37890625 1641.0693359375 1638.7103271484375 1636.57568359375 1634.0740966796875 1630.7188720703125 1628.9906005859375 1626.314697265625 1624.1058349609375 1622.3431396484375 1619.0672607421875 1617.0323486328125 1615.282470703125 1612.698486328125 1611.21826171875 1609.0084228515625 1607.595947265625 1605.2674560546875 1604.0399169921875 1602.680419921875 1601.818603515625 1600.588134765625 1599.1258544921875 1598.31591796875 1596.8265380859375 1595.940673828125 1594.36865234375 1593.2545166015625 1591.99609375 1591.4412841796875 1590.7210693359375 1590.063232421875 1589.8695068359375 1589.5670166015625 1589.2713623046875 1589.095703125 1589.0340576171875 1589.14306640625 1589.15380859375 1589.3348388671875 1589.5843505859375 1588.57958984375 1590.047607421875 1590.090576171875 1590.0267333984375 1589.9559326171875 1590.3792724609375 1592.868408203125 1593.07080078125 1596.0880126953125 1600.5849609375 1605.5313720703125 1608.2635498046875 1611.94287109375 1616.58740234375 1622.5955810546875 1628.8392333984375 1635.8348388671875 1643.2392578125 1648.673583984375 1655.7476806640625 1664.935791015625 1668.426513671875 1672.1016845703125 1675.84716796875 1682.5452880859375 1697.44677734375 1708.1640625 1716.2691650390625 1722.543701171875 1728.5279541015625 1734.2164306640625 1741.6317138671875 1746.4495849609375 1751.1536865234375 1756.044921875 1763.1602783203125 1768.2158203125 1773.961181640625 1780.9049072265625 1787.3043212890625 1795.0347900390625 1798.70654296875 1803.28857421875 1809.3868408203125 1815.5191650390625 1824.046875 1828.97265625
1906.5953369140625 1901.218505859375 1893.5244140625 1887.9013671875 1885.211669921875 1882.3353271484375 1883.6680908203125 1884.270751953125 1880.94775390625 1878.1400146484375 1875.2490234375 1870.012939453125 1863.853271484375 1856.1348876953125 1850.746826171875 1845.3634033203125 1839.6712646484375 1834.01025390625 1828.5673828125 1823.6451416015625 1820.633544921875 1824.64208984375 1824.1773681640625 1827.46875 1827.0535888671875 1823.79296875 1820.042236328125 1815.71875 1811.808349609375 1810.29052734375 1807.432861328125 1805.5223388671875 1801.47314453125 1798.077392578125 1792.787841796875 1787.6102294921875 1782.1463623046875 1777.6688232421875 1772.42236328125 1766.095458984375 1763.439453125 1759.40673828125 1752.3050537109375 1748.6295166015625 1746.876953125 1747.4727783203125 1750.69091796875 1754.8372802734375 1758.299560546875 1755.3529052734375 1752.1099853515625 1753.4638671875 1751.677978515625 1749.3931884765625 1746.94482421875 1743.0823974609375 1739.3284912109375 1734.515380859375 1732.3565673828125 1730.7298583984375 1728.0733642578125 1724.722900390625 1720.8687744140625 1715.7415771484375 1711.9866943359375 1704.6798095703125 1699.8857421875 1696.05859375 1691.4259033203125 1687.66162109375 1684.018310546875 1680.8702392578125 1677.8870849609375 1674.3240966796875 1672.4989013671875 1669.5230712890625 1664.8466796875 1660.72021484375 1655.9417724609375 1653.084716796875 1650.5894775390625 1648.1474609375 1645.8043212890625 1642.6900634765625 1640.4061279296875 1637.365234375 1634.9332275390625 1631.922119140625 1629.4237060546875 1626.1644287109375 1623.60302734375 1622.0078125 1619.2984619140625 1617.5498046875 1614.8468017578125 1613.1265869140625 1611.2689208984375 1609.5281982421875 1608.1663818359375 1605.6912841796875 1604.5323486328125 1603.2965087890625 1601.4984130859375 1599.815673828125 1599.4188232421875 1597.9898681640625 1596.853271484375 1595.56396484375 1594.37109375 1593.5157470703125 1592.31396484375 1591.4940185546875 1590.79248046875 1590.5897216796875 1589.8763427734375 1589.580322265625 1589.289794921875 1589.3984375 1589.028564453125 1589.24072265625 1589.24267578125 1589.41162109375 1589.510986328125 1589.4234619140625 1588.5721435546875 1590.172607421875 1589.9705810546875 1590.0447998046875 1590.391357421875 1592.589599609375 1593.403076171875 1595.9293212890625 1600.2308349609375 1603.96728515625 1606.57080078125 1610.2568359375 1614.99853515625 1620.0958251953125 1625.26513671875 1630.1663818359375 1636.5330810546875 1642.74560546875 1650.385498046875 1656.8614501953125 1662.3685302734375 1666.1817626953125 1671.662353515625 1678.267578125 1685.7899169921875 1697.7376708984375 1707.8829345703125 1716.80859375 1722.0528564453125 1726.50927734375 1732.239990234375 1738.40283203125 1747.71630859375 1751.4993896484375 1756.968505859375 1763.6082763671875 1770.631103515625 1776.8431396484375 1783.6884765625 1789.095703125 1793.9713134765625 1799.1844482421875 1804.7513427734375 1810.199462890625 1814.9091796875 1821.082275390625
1913.1097412109375 1907.3946533203125 1900.677734375 1896.46875 1892.4219970703125 1891.0535888671875 1892.053955078125 1892.9658203125 1891.1376953125 1888.07861328125 1882.955810546875 1876.5274658203125 1869.4310302734375 1862.3203125 1856.125 1851.2108154296875 1845.42919921875 1839.8621826171875 1833.861328125 1828.658203125 1829.25537109375 1832.2010498046875 1832.6590576171875 1834.4764404296875 1833.310546875 1830.07470703125 1825.826904296875 1821.6121826171875 1819.064208984375 1817.800537109375 1815.1842041015625 1811.0382080078125 1807.56689453125 1802.8641357421875 1797.976318359375 1792.3143310546875 1786.7437744140625 1781.7401123046875 1775.0584716796875 1771.4876708984375 1769.0751953125 1765.3065185546875 1760.012451171875 1753.1119384765625 1751.93701171875 1753.7333984375 1759.018798828125 1761.0382080078125 1762.8232421875 1760.86865234375 1759.04833984375 1761.14453125 1758.663818359375 1755.853759765625 1752.8682861328125 1748.9970703125 1743.766357421875 1739.6138916015625 1736.9027099609375 1734.837158203125 1730.829833984375 1726.603515625 1721.1885986328125 1714.802490234375 1709.6414794921875 1705.8126220703125 1701.353515625 1699.7208251953125 1696.18701171875 1690.373291015625 1686.043212890625 1682.50146484375 1679.487060546875 1673.5721435546875 1670.028564453125 1665.91064453125 1661.8609619140625 1659.5616455078125 1656.9293212890625 1653.97509765625 1652.078125 1648.6094970703125 1645.840087890625 1642.8973388671875 1640.2454833984375 1637.20458984375 1634.06640625 1631.3170166015625 1629.12158203125 1627.093505859375 1624.0885009765625 1621.3692626953125 1619.67138671875 1617.4127197265625 1615.1524658203125 1613.0123291015625 1610.9300537109375 1608.9256591796875 1607.262451171875 1605.355712890625 1603.888427734375 1602.3853759765625 1600.7742919921875 1599.31396484375 1597.9586181640625 1596.8431396484375 1595.987548828125 1595.12841796875 1593.955078125 1593.148681640625 1592.1422119140625 1591.5025634765625 1590.901123046875 1590.4005126953125 1590.1199951171875 1589.673828125 1589.5958251953125 1589.4117431640625 1589.318603515625 1589.1607666015625 1589.3284912109375 1589.240234375 1589.6239013671875 1589.420166015625 1589.608154296875 1588.7388916015625 1590.30078125 1590.209228515625 1590.4947509765625 1591.9615478515625 1593.8251953125 1596.5599365234375 1599.5078125 1601.328125 1604.1268310546875 1606.81982421875 1610.9451904296875 1614.9437255859375 1619.403076171875 1624.9801025390625 1631.4176025390625 1636.3001708984375 1644.369873046875 1651.7264404296875 1655.8135986328125 1660.2176513671875 1665.84228515625 1672.65966796875 1679.6549072265625 1694.053466796875 1699.0113525390625 1705.712646484375 1712.3800048828125 1718.5963134765625 1722.511474609375 1725.674072265625 1734.6866455078125 1742.9744873046875 1751.496826171875 1757.899169921875 1764.714599609375 1773.1322021484375 1779.2996826171875 1784.698486328125 1788.67236328125 1793.8594970703125 1799.592529296875 1805.5908203125 1812.1162109375 1817.5618896484375
1919.0491943359375 1914.295166015625 1909.217529296875 1902.7034912109375 1901.427734375 1900.730712890625 1900.1402587890625 1900.9979248046875 1899.2904052734375 1894.9754638671875 1890.0115966796875 1881.700439453125 1873.439697265625 1867.4515380859375 1861.731689453125 1856.364990234375 1850.934326171875 1845.205322265625 1839.35205078125 1834.73388671875 1837.0111083984375 1839.770263671875 1841.3719482421875 1841.482177734375 1840.1083984375 1836.6898193359375 1832.5985107421875 1828.56103515625 1825.860595703125 1823.4573974609375 1820.802734375 1816.5716552734375 1811.6365966796875 1807.0413818359375 1801.98486328125 1796.3511962890625 1790.5477294921875 1785.212646484375 1779.6390380859375 1780.0328369140625 1775.043701171875 1772.354736328125 1766.235595703125 1761.856689453125 1757.25830078125 1759.9339599609375 1765.8740234375 1766.8270263671875 1767.6995849609375 1766.88232421875 1765.4366455078125 1767.5550537109375 1764.6448974609375 1762.167724609375 1758.5457763671875 1754.9915771484375 1750.1353759765625 1744.68798828125 1741.406005859375 1736.1953125 1730.71337890625 1724.8392333984375 1719.0401611328125 1715.1461181640625 1712.4239501953125 1708.3228759765625 1710.1043701171875 1708.6666259765625 1702.0281982421875 1695.1138916015625 1690.333251953125 1685.439208984375 1679.3795166015625 1674.417724609375 1670.3802490234375 1666.841064453125 1662.7681884765625 1659.18603515625 1656.7962646484375 1654.2408447265625 1651.4783935546875 1649.28076171875 1646.1837158203125 1643.4906005859375 1640.914306640625 1637.2733154296875 1633.9100341796875 1631.111083984375 1628.1146240234375 1626.2137451171875 1623.9171142578125 1621.4276123046875 1619.027099609375 1616.95703125 1615.0072021484375 1613.076171875 1610.8353271484375 1608.83740234375 1607.197265625 1605.5941162109375 1604.0975341796875 1602.2547607421875 1600.87890625 1599.4090576171875 1598.15234375 1597.037353515625 1595.921630859375 1595.04736328125 1593.9195556640625 1593.286376953125 1592.1761474609375 1591.493408203125 1590.861083984375 1590.5535888671875 1590.231201171875 1589.986083984375 1589.7041015625 1589.314208984375 1589.3677978515625 1589.3536376953125 1589.4556884765625 1589.6102294921875 1589.7039794921875 1589.8267822265625 1589.6552734375 1589.5517578125 1589.4947509765625 1590.2967529296875 1590.603759765625 1590.9176025390625 1592.7249755859375 1594.843505859375 1596.110107421875 1597.2191162109375 1600.015625 1602.6793212890625 1606.1292724609375 1610.4537353515625 1615.4825439453125 1620.59619140625 1626.1124267578125 1631.871337890625 1638.9468994140625 1645.513427734375 1649.9716796875 1654.16748046875 1660.0496826171875 1666.6795654296875 1670.4332275390625 1685.6932373046875 1693.67041015625 1699.034423828125 1701.9560546875 1708.176025390625 1713.942138671875 1716.109619140625 1721.730224609375 1734.451416015625 1747.4830322265625 1752.7908935546875 1758.2039794921875 1764.2232666015625 1776.2906494140625 1781.202392578125 1780.958251953125 1783.708740234375 1789.575927734375 1796.18212890625 1807.0338134765625 1813.3363037109375
1926.9501953125 1922.057861328125 1915.2447509765625 1911.0394287109375 1910.219970703125 1909.791748046875 1909.426513671875 1909.1021728515625 1906.8492431640625 1902.5068359375 1894.95166015625 1886.331787109375 1879.7806396484375 1873.7564697265625 1867.158447265625 1862.3839111328125 1856.59521484375 1850.3162841796875 1844.8826904296875 1842.29833984375 1844.0843505859375 1846.694091796875 1848.4515380859375 1848.707763671875 1846.8199462890625 1843.5479736328125 1839.3162841796875 1835.17529296875 1832.3939208984375 1829.949462890625 1826.4462890625 1821.313232421875 1816.1334228515625 1811.2174072265625 1805.650146484375 1799.938232421875 1794.2603759765625 1788.7823486328125 1786.689697265625 1784.8973388671875 1780.6676025390625 1778.4686279296875 1773.2340087890625 1766.9664306640625 1763.8553466796875 1768.4501953125 1772.258544921875 1772.6041259765625 1773.7852783203125 1773.5765380859375 1771.2740478515625 1773.822265625 1771.9285888671875 1768.447021484375 1764.6875 1760.5625 1755.5291748046875 1751.7215576171875 1743.53076171875 1735.5074462890625 1730.1309814453125 1726.40869140625 1721.665283203125 1721.279296875 1720.7471923828125 1720.5638427734375 1720.044189453125 1723.3121337890625 1712.5433349609375 1702.1016845703125 1695.478759765625 1689.485107421875 1684.781005859375 1679.2593994140625 1674.6427001953125 1669.5738525390625 1664.236572265625 1660.763427734375 1657.2763671875 1653.512451171875 1651.3543701171875 1648.4720458984375 1646.57080078125 1644.87744140625 1641.8531494140625 1639.1650390625 1634.6192626953125 1631.3392333984375 1627.6441650390625 1624.2103271484375 1622.5802001953125 1620.4752197265625 1618.2384033203125 1615.5831298828125 1613.690673828125 1611.7469482421875 1610.679931640625 1608.782470703125 1606.8421630859375 1605.404541015625 1603.646728515625 1602.1920166015625 1600.8023681640625 1599.2630615234375 1598.1495361328125 1597.16357421875 1596.2080078125 1595.1531982421875 1594.1781005859375 1593.2818603515625 1592.12841796875 1591.2806396484375 1590.6990966796875 1590.2967529296875 1590.0179443359375 1589.9234619140625 1590.0108642578125 1589.59716796875 1589.362548828125 1589.422607421875 1589.43212890625 1589.744384765625 1589.74853515625 1589.7347412109375 1589.8377685546875 1589.8297119140625 1589.14013671875 1590.32080078125 1590.4945068359375 1590.9066162109375 1591.273193359375 1592.7603759765625 1593.634521484375 1593.580810546875 1594.9794921875 1598.188232421875 1602.045166015625 1607.3353271484375 1611.636962890625 1616.9923095703125 1621.916259765625 1627.8302001953125 1633.789794921875 1639.751220703125 1644.7532958984375 1649.216552734375 1655.0836181640625 1659.7471923828125 1663.576171875 1676.959716796875 1683.570068359375 1688.5821533203125 1693.141357421875 1698.3154296875 1706.765380859375 1706.6827392578125 1712.5576171875 1723.78662109375 1736.0941162109375 1741.04931640625 1746.312255859375 1755.251953125 1765.0982666015625 1763.6973876953125 1770.2877197265625 1774.6502685546875 1780.0206298828125 1785.735595703125 1792.1197509765625 1806.919189453125
1936.308837890625 1929.3201904296875 1923.039306640625 1920.5986328125 1920.06201171875 1918.9700927734375 1918.357666015625 1917.92529296875 1915.4664306640625 1907.0499267578125 1898.8302001953125 1892.82421875 1886.41064453125 1879.7117919921875 1874.283203125 1868.362060546875 1862.3863525390625 1857.4267578125 1851.7181396484375 1851.9713134765625 1852.092529296875 1853.9874267578125 1855.3182373046875 1855.425048828125 1852.84912109375 1850.08642578125 1845.5704345703125 1841.807373046875 1839.225830078125 1834.749755859375 1830.1431884765625 1825.3934326171875 1820.2490234375 1814.2388916015625 1808.3924560546875 1803.065673828125 1797.7156982421875 1794.0115966796875 1793.837158203125 1790.703369140625 1787.6983642578125 1783.13525390625 1779.267333984375 1771.015869140625 1770.5341796875 1776.66845703125 1777.80029296875 1778.3935546875 1781.032958984375 1778.3804931640625 1777.031005859375 1779.145263671875 1776.86669921875 1773.3734130859375 1769.2095947265625 1766.264892578125 1761.0989990234375 1751.3260498046875 1742.7366943359375 1735.9588623046875 1732.968505859375 1729.6456298828125 1728.3179931640625 1729.59033203125 1728.5238037109375 1728.5152587890625 1727.97705078125 1728.8062744140625 1720.4442138671875 1711.59521484375 1700.1590576171875 1694.9930419921875 1689.7454833984375 1685.2003173828125 1679.0628662109375 1673.85546875 1670.109619140625 1664.6817626953125 1661.1611328125 1656.6177978515625 1652.9053955078125 1651.5535888671875 1650.9298095703125 1649.1187744140625 1646.071044921875 1640.933837890625 1636.68701171875 1632.0303955078125 1628.293701171875 1625.249267578125 1621.078857421875 1619.3223876953125 1617.68798828125 1615.0565185546875 1613.0390625 1610.8798828125 1609.7745361328125 1608.1558837890625 1606.7933349609375 1604.3701171875 1603.1944580078125 1602.056396484375 1600.780029296875 1599.595947265625 1598.4007568359375 1597.142333984375 1596.423828125 1595.5533447265625 1594.1082763671875 1593.0645751953125 1592.3948974609375 1591.43505859375 1591.0318603515625 1590.54150390625 1590.255126953125 1589.806640625 1589.93798828125 1589.7811279296875 1590.21337890625 1589.5625 1589.760498046875 1589.6214599609375 1589.8375244140625 1589.6536865234375 1589.7452392578125 1589.990478515625 1589.87939453125 1589.0859375 1590.54443359375 1590.606689453125 1591.2369384765625 1591.704345703125 1592.293701171875 1592.1312255859375 1592.343505859375 1594.0062255859375 1598.8953857421875 1604.2410888671875 1608.709228515625 1613.5609130859375 1618.005859375 1624.2889404296875 1630.8763427734375 1636.3209228515625 1640.8267822265625 1645.552490234375 1650.228759765625 1653.8106689453125 1659.217041015625 1666.17333984375 1676.064453125 1682.507080078125 1687.0206298828125 1690.227783203125 1695.470947265625 1700.9630126953125 1709.4476318359375 1716.337158203125 1721.3953857421875 1731.695068359375 1734.6551513671875 1741.76318359375 1748.63134765625 1755.12109375 1761.4794921875 1767.5758056640625 1774.4415283203125 1779.7852783203125 1792.833984375 1797.325439453125
1943.3717041015625 1936.97607421875 1932.8958740234375 1932.1424560546875 1930.1309814453125 1928.706298828125 1927.3785400390625 1925.119140625 1920.6107177734375 1912.5897216796875 1906.5859375 1899.51611328125 1893.8653564453125 1887.031982421875 1880.1053466796875 1875.1495361328125 1869.404052734375 1864.64892578125 1861.3076171875 1861.722900390625 1860.55078125 1860.6246337890625 1861.557373046875 1862.1383056640625 1858.974853515625 1855.9061279296875 1850.96240234375 1847.6961669921875 1844.84521484375 1840.2303466796875 1834.149658203125 1829.637939453125 1823.896240234375 1818.160888671875 1812.6195068359375 1807.5791015625 1803.5040283203125 1800.315185546875 1799.176025390625 1796.1966552734375 1793.463623046875 1788.57568359375 1782.7998046875 1775.9613037109375 1778.1519775390625 1782.6700439453125 1784.1778564453125 1785.662353515625 1786.854736328125 1782.122802734375 1783.00830078125 1784.4703369140625 1781.865234375 1778.5223388671875 1774.3692626953125 1766.159912109375 1757.108154296875 1749.78515625 1742.035888671875 1739.5576171875 1739.02392578125 1740.2437744140625 1737.71630859375 1736.165771484375 1736.1707763671875 1736.5618896484375 1734.937744140625 1733.6737060546875 1732.1180419921875 1726.450927734375 1708.4046630859375 1699.78125 1695.8978271484375 1690.97314453125 1684.1424560546875 1678.7740478515625 1675.54931640625 1671.9993896484375 1668.078857421875 1662.1683349609375 1657.6953125 1656.777099609375 1655.435302734375 1652.843017578125 1647.961181640625 1643.429931640625 1640.0772705078125 1636.3123779296875 1632.1566162109375 1627.9488525390625 1623.8770751953125 1620.1123046875 1617.576904296875 1614.6400146484375 1612.0980224609375 1610.310791015625 1608.8681640625 1607.689453125 1606.2587890625 1604.7252197265625 1603.30615234375 1602.1385498046875 1601.0001220703125 1599.7828369140625 1598.6224365234375 1597.321044921875 1596.0838623046875 1594.9820556640625 1594.0296630859375 1593.1502685546875 1592.296630859375 1591.5516357421875 1591.2232666015625 1590.626953125 1590.362060546875 1590.1954345703125 1589.944091796875 1589.938720703125 1589.877685546875 1589.7752685546875 1589.739501953125 1589.68017578125 1589.9976806640625 1589.8699951171875 1589.809326171875 1589.93994140625 1589.889404296875 1589.9788818359375 1589.344482421875 1590.628173828125 1591.0811767578125 1591.29931640625 1591.33642578125 1591.388916015625 1591.75244140625 1592.5567626953125 1596.1226806640625 1601.646240234375 1605.79052734375 1610.9326171875 1616.2540283203125 1621.8385009765625 1627.97216796875 1632.8382568359375 1636.2120361328125 1640.265625 1644.04736328125 1649.404296875 1655.385009765625 1661.0457763671875 1667.83447265625 1675.70654296875 1679.9715576171875 1684.8922119140625 1690.247802734375 1694.918701171875 1702.3524169921875 1712.04150390625 1714.783203125 1721.9385986328125 1728.29541015625 1736.039306640625 1743.02099609375 1750.3748779296875 1755.7830810546875 1761.6597900390625 1769.7308349609375 1775.406494140625 1783.9677734375 1790.50244140625
1951.86279296875 1947.5098876953125 1943.2281494140625 1942.966796875 1940.5301513671875 1939.505126953125 1938.39111328125 1935.431640625 1926.9390869140625 1923.418212890625 1916.27880859375 1908.882080078125 1900.074951171875 1894.1510009765625 1887.192138671875 1880.7755126953125 1874.192138671875 1870.05859375 1868.91259765625 1869.400146484375 1868.4150390625 1867.7186279296875 1868.4803466796875 1868.5478515625 1865.2996826171875 1860.9248046875 1857.901123046875 1855.0421142578125 1850.061767578125 1844.19140625 1840.0220947265625 1834.09326171875 1826.344970703125 1820.4068603515625 1816.652587890625 1811.3087158203125 1808.1934814453125 1806.4283447265625 1803.9759521484375 1801.1949462890625 1798.6746826171875 1792.1474609375 1784.9140625 1782.384521484375 1784.6849365234375 1788.4058837890625 1790.6591796875 1792.955078125 1791.140869140625 1789.2529296875 1789.245361328125 1788.7889404296875 1787.3890380859375 1778.4117431640625 1769.993896484375 1760.8812255859375 1754.0631103515625 1749.2943115234375 1745.2957763671875 1744.23046875 1744.915283203125 1747.3570556640625 1743.6417236328125 1743.2332763671875 1743.30615234375 1741.695556640625 1739.9097900390625 1738.243408203125 1736.24658203125 1731.8238525390625 1718.9764404296875 1708.014404296875 1701.8359375 1695.0167236328125 1690.504150390625 1685.0650634765625 1681.6171875 1677.299560546875 1673.7279052734375 1668.3143310546875 1663.3065185546875 1662.341064453125 1659.673828125 1655.254150390625 1652.108154296875 1648.16162109375 1643.822021484375 1639.9713134765625 1635.5511474609375 1631.7099609375 1628.043701171875 1624.2139892578125 1620.5589599609375 1616.691650390625 1612.3204345703125 1609.5828857421875 1608.06591796875 1606.931640625 1605.6722412109375 1604.537109375 1603.736572265625 1602.4361572265625 1601.1180419921875 1599.85205078125 1598.775146484375 1597.40234375 1596.4002685546875 1595.0439453125 1593.9345703125 1593.1624755859375 1592.278076171875 1591.35302734375 1591.1175537109375 1590.8248291015625 1590.409912109375 1589.88916015625 1589.97021484375 1589.994140625 1589.804443359375 1589.734619140625 1589.852294921875 1589.9901123046875 1589.9573974609375 1589.9158935546875 1589.793212890625 1589.8995361328125 1589.93017578125 1590.1854248046875 1589.8802490234375 1589.96240234375 1590.7786865234375 1590.9891357421875 1591.0352783203125 1591.28662109375 1591.4530029296875 1592.345703125 1595.2027587890625 1599.1259765625 1603.6812744140625 1607.9830322265625 1612.61767578125 1618.57470703125 1625.952392578125 1630.306640625 1631.4422607421875 1634.7933349609375 1640.0966796875 1645.043701171875 1650.18701171875 1655.5684814453125 1660.6556396484375 1668.048828125 1673.3431396484375 1679.6922607421875 1684.016845703125 1688.9007568359375 1696.0025634765625 1702.586181640625 1708.417236328125 1717.1534423828125 1722.835693359375 1728.947998046875 1735.8421630859375 1743.1099853515625 1749.1485595703125 1757.2684326171875 1763.779052734375 1768.718017578125 1774.812744140625 1786.03173828125
1955.885009765625 1953.7293701171875 1951.58447265625 1950.816162109375 1950.7197265625 1949.1788330078125 1947.1226806640625 1942.8916015625 1935.4105224609375 1931.6707763671875 1923.110595703125 1914.583740234375 1907.9427490234375 1900.1119384765625 1892.432373046875 1885.614990234375 1878.8367919921875 1876.8040771484375 1877.3262939453125 1877.8079833984375 1876.4783935546875 1874.8421630859375 1875.19775390625 1874.8585205078125 1871.093017578125 1867.621826171875 1864.6881103515625 1861.027099609375 1854.66455078125 1850.25341796875 1845.0081787109375 1837.416748046875 1829.716796875 1824.505615234375 1820.15185546875 1815.9781494140625 1813.61865234375 1811.5809326171875 1809.538330078125 1806.8355712890625 1802.0050048828125 1794.4725341796875 1789.0379638671875 1788.1539306640625 1790.8031005859375 1795.7703857421875 1798.397705078125 1799.14599609375 1795.896728515625 1795.484130859375 1795.6510009765625 1794.5933837890625 1785.5322265625 1774.861083984375 1765.9002685546875 1759.908447265625 1755.8760986328125 1752.4241943359375 1750.71240234375 1749.914794921875 1750.3865966796875 1751.7572021484375 1749.1815185546875 1750.1534423828125 1747.7176513671875 1747.48828125 1744.4481201171875 1742.2196044921875 1739.0103759765625 1735.1082763671875 1727.9322509765625 1714.19091796875 1711.6314697265625 1700.54296875 1697.0224609375 1691.86767578125 1686.678466796875 1682.9423828125 1678.844482421875 1674.101806640625 1668.64208984375 1666.60888671875 1663.603271484375 1660.24560546875 1657.1419677734375 1652.7393798828125 1648.7418212890625 1644.36865234375 1639.6717529296875 1634.683349609375 1631.0946044921875 1628.78076171875 1625.1827392578125 1621.2108154296875 1616.5679931640625 1612.9849853515625 1609.190185546875 1607.0849609375 1606.1435546875 1605.254638671875 1604.953125 1603.002197265625 1601.46533203125 1599.593505859375 1598.87255859375 1597.505126953125 1596.5003662109375 1595.16015625 1594.07958984375 1593.1429443359375 1591.9625244140625 1591.52392578125 1591.090576171875 1590.6883544921875 1590.4580078125 1590.058837890625 1590.0260009765625 1590.08837890625 1590.0482177734375 1590.1883544921875 1590.044921875 1589.58251953125 1590.1904296875 1590.123046875 1589.752685546875 1590.08447265625 1590.015625 1590.3111572265625 1590.341552734375 1589.5150146484375 1590.7459716796875 1591.0804443359375 1591.157470703125 1591.257568359375 1591.5438232421875 1591.678466796875 1592.26025390625 1597.45361328125 1602.5076904296875 1605.0416259765625 1609.6937255859375 1615.654052734375 1620.3809814453125 1624.3436279296875 1628.1688232421875 1631.9312744140625 1635.578125 1640.1903076171875 1645.599853515625 1651.656982421875 1658.6033935546875 1664.0067138671875 1669.2216796875 1673.1285400390625 1678.6005859375 1684.083251953125 1691.1627197265625 1696.56640625 1703.3907470703125 1709.7757568359375 1715.548095703125 1723.4693603515625 1729.721923828125 1735.785888671875 1744.916748046875 1752.7369384765625 1759.493896484375 1763.8282470703125 1770.6312255859375 1781.7725830078125
1960.8070068359375 1959.5992431640625 1957.69775390625 1958.0216064453125 1957.52490234375 1954.9517822265625 1951.873046875 1947.16748046875 1941.4190673828125 1936.17724609375 1929.0960693359375 1923.1690673828125 1915.7218017578125 1908.563720703125 1899.564697265625 1892.1798095703125 1885.6649169921875 1886.1300048828125 1887.4334716796875 1886.375 1884.683837890625 1882.3231201171875 1882.1422119140625 1880.337890625 1876.5238037109375 1874.45556640625 1870.3160400390625 1865.5908203125 1860.0340576171875 1854.0716552734375 1847.3450927734375 1840.48779296875 1832.6119384765625 1828.4854736328125 1823.664794921875 1820.9849853515625 1818.651123046875 1817.0362548828125 1814.3524169921875 1811.2943115234375 1803.884765625 1797.1744384765625 1795.0589599609375 1794.784423828125 1796.73095703125 1802.906982421875 1805.0579833984375 1805.4822998046875 1801.203125 1802.3873291015625 1801.939453125 1792.6656494140625 1782.7530517578125 1772.868896484375 1766.7178955078125 1762.948974609375 1759.811279296875 1757.8721923828125 1755.8814697265625 1755.3990478515625 1757.4454345703125 1756.14892578125 1756.3868408203125 1756.2227783203125 1753.854248046875 1751.9910888671875 1748.802734375 1746.310791015625 1741.7901611328125 1739.0150146484375 1737.5611572265625 1728.2974853515625 1721.2320556640625 1710.4439697265625 1702.468994140625 1696.8232421875 1691.6531982421875 1687.37353515625 1682.9774169921875 1679.6373291015625 1674.473876953125 1671.302978515625 1668.682861328125 1665.1859130859375 1660.2779541015625 1656.43603515625 1652.448486328125 1647.044189453125 1642.471435546875 1638.0615234375 1635.329833984375 1633.133056640625 1630.2738037109375 1625.7738037109375 1622.5758056640625 1619.282470703125 1614.6724853515625 1610.8033447265625 1608.00439453125 1607.9158935546875 1606.766845703125 1603.7998046875 1602.152587890625 1602.66943359375 1598.4764404296875 1597.2642822265625 1596.023681640625 1595.0909423828125 1594.2138671875 1593.1385498046875 1592.0841064453125 1591.2666015625 1590.906982421875 1590.4017333984375 1590.236328125 1590.146728515625 1590.10498046875 1589.756591796875 1589.7847900390625 1589.8551025390625 1589.9615478515625 1590.021728515625 1590.0703125 1590.3173828125 1590.272216796875 1590.1077880859375 1590.245849609375 1590.4744873046875 1590.6466064453125 1590.7413330078125 1589.6568603515625 1590.9248046875 1591.0784912109375 1591.5478515625 1591.7305908203125 1591.7657470703125 1592.228271484375 1595.3577880859375 1600.09619140625 1603.08154296875 1606.747314453125 1612.388427734375 1617.2823486328125 1621.4954833984375 1624.4400634765625 1627.400146484375 1631.4068603515625 1636.7293701171875 1641.613525390625 1649.0264892578125 1654.6298828125 1659.718017578125 1663.73388671875 1668.32666015625 1673.7379150390625 1680.814453125 1687.0325927734375 1691.4815673828125 1699.018310546875 1704.577880859375 1709.905029296875 1717.9832763671875 1724.8082275390625 1730.0001220703125 1740.908203125 1746.7127685546875 1753.31591796875 1759.1729736328125 1766.0400390625 1775.250244140625
1965.365966796875 1964.7779541015625 1963.61669921875 1964.1695556640625 1963.224365234375 1960.288330078125 1955.44970703125 1951.2490234375 1947.349853515625 1942.435791015625 1936.0770263671875 1931.4097900390625 1926.9295654296875 1914.9293212890625 1905.4095458984375 1898.428955078125 1893.55712890625 1894.8173828125 1896.09619140625 1893.659912109375 1892.3638916015625 1890.3892822265625 1889.01025390625 1886.14599609375 1883.7625732421875 1880.1087646484375 1875.38671875 1869.4500732421875 1864.4168701171875 1855.4224853515625 1848.2869873046875 1843.6346435546875 1836.7730712890625 1831.64453125 1828.418701171875 1825.4140625 1823.636962890625 1822.2467041015625 1819.776611328125 1814.933837890625 1808.9136962890625 1802.0205078125 1800.8231201171875 1801.20361328125 1801.8853759765625 1806.725341796875 1810.677001953125 1809.0123291015625 1806.38232421875 1807.63330078125 1802.716796875 1792.1741943359375 1781.4908447265625 1773.84130859375 1770.4517822265625 1767.5533447265625 1764.640380859375 1763.3428955078125 1762.5859375 1762.17041015625 1762.2962646484375 1762.5125732421875 1763.2481689453125 1761.4920654296875 1759.0926513671875 1755.9158935546875 1752.8914794921875 1748.0325927734375 1744.8782958984375 1742.525146484375 1740.64501953125 1739.603271484375 1733.43212890625 1718.9566650390625 1708.2203369140625 1702.757568359375 1697.373046875 1693.0625 1688.6505126953125 1684.21044921875 1678.3619384765625 1677.251708984375 1673.7652587890625 1668.8642578125 1664.058349609375 1659.70361328125 1655.1151123046875 1650.6802978515625 1646.5294189453125 1642.9180908203125 1639.7603759765625 1636.885986328125 1633.67041015625 1630.817626953125 1628.2840576171875 1624.117919921875 1619.310546875 1615.509765625 1611.288818359375 1609.3878173828125 1607.1396484375 1603.726806640625 1602.744384765625 1601.1259765625 1600.8203125 1598.3927001953125 1595.8048095703125 1594.7939453125 1593.9520263671875 1592.97412109375 1592.1722412109375 1591.216796875 1590.7623291015625 1590.268310546875 1590.1708984375 1590.091064453125 1589.965087890625 1589.886962890625 1589.6693115234375 1589.8961181640625 1590.0330810546875 1590.0748291015625 1590.060791015625 1590.2774658203125 1590.658203125 1590.605224609375 1590.2518310546875 1590.434814453125 1590.7677001953125 1590.9456787109375 1591.01708984375 1589.7454833984375 1591.1436767578125 1591.493896484375 1591.6839599609375 1592.0836181640625 1592.3172607421875 1592.8052978515625 1594.9827880859375 1600.412109375 1604.7894287109375 1610.858642578125 1613.2681884765625 1616.2701416015625 1619.287841796875 1623.3963623046875 1628.0423583984375 1633.422119140625 1638.642333984375 1644.163330078125 1649.6982421875 1654.6956787109375 1659.18505859375 1664.0360107421875 1668.87109375 1675.1290283203125 1681.7271728515625 1687.55126953125 1693.0552978515625 1698.260986328125 1703.4095458984375 1705.8460693359375 1712.922607421875 1721.613525390625 1732.760986328125 1738.5517578125 1740.8814697265625 1747.8065185546875 1758.5517578125 1764.176513671875
1971.714111328125 1970.9793701171875 1970.662109375 1971.3070068359375 1969.1868896484375 1965.0921630859375 1961.6505126953125 1957.201904296875 1953.124267578125 1948.0245361328125 1943.12353515625 1937.533203125 1931.294677734375 1922.811279296875 1914.2506103515625 1906.1884765625 1901.6839599609375 1905.0040283203125 1904.421142578125 1901.5264892578125 1899.73193359375 1898.2938232421875 1895.1754150390625 1892.9058837890625 1889.0015869140625 1884.50341796875 1880.1077880859375 1874.766845703125 1866.37939453125 1856.337646484375 1850.730712890625 1844.9481201171875 1839.9925537109375 1835.2528076171875 1832.05224609375 1830.18408203125 1829.170166015625 1827.3143310546875 1824.0343017578125 1820.4342041015625 1815.0361328125 1809.4310302734375 1807.5269775390625 1806.7056884765625 1808.4398193359375 1813.30419921875 1815.37646484375 1812.9327392578125 1811.39013671875 1811.9932861328125 1801.6024169921875 1791.7630615234375 1781.967041015625 1779.0140380859375 1775.321044921875 1773.19384765625 1771.5147705078125 1770.048095703125 1769.5091552734375 1769.443359375 1769.6466064453125 1769.995361328125 1769.227783203125 1766.571044921875 1763.560546875 1759.9693603515625 1755.710693359375 1750.90625 1747.263671875 1744.5440673828125 1743.071044921875 1742.2852783203125 1740.5958251953125 1729.6717529296875 1715.147216796875 1708.5792236328125 1702.8604736328125 1696.9393310546875 1692.4071044921875 1687.9425048828125 1684.0810546875 1682.7950439453125 1677.0511474609375 1672.4014892578125 1667.20654296875 1662.704345703125 1657.7960205078125 1653.92724609375 1650.7222900390625 1648.2662353515625 1644.5777587890625 1640.8466796875 1637.7486572265625 1634.5899658203125 1632.043212890625 1628.581787109375 1625.7430419921875 1621.280517578125 1616.2200927734375 1613.800537109375 1610.7022705078125 1605.8743896484375 1604.9307861328125 1602.4410400390625 1600.206787109375 1597.9161376953125 1597.762939453125 1595.966796875 1593.764892578125 1592.8238525390625 1591.9591064453125 1591.3477783203125 1590.683837890625 1590.4715576171875 1590.3570556640625 1590.23681640625 1589.90869140625 1589.90576171875 1589.89306640625 1589.8463134765625 1589.764892578125 1589.87255859375 1590.2564697265625 1590.041015625 1590.58935546875 1590.5523681640625 1590.8240966796875 1591.15380859375 1590.9586181640625 1590.9617919921875 1591.061279296875 1590.775634765625 1590.622802734375 1591.256103515625 1591.2470703125 1591.6181640625 1591.98876953125 1592.7996826171875 1593.3145751953125 1596.276123046875 1598.6375732421875 1602.982421875 1609.2464599609375 1612.4776611328125 1615.8172607421875 1619.4539794921875 1623.927001953125 1628.85546875 1633.8006591796875 1639.3734130859375 1643.3192138671875 1650.9605712890625 1653.0267333984375 1660.894775390625 1665.48583984375 1671.5057373046875 1677.511474609375 1683.5888671875 1688.5242919921875 1693.225341796875 1697.2740478515625 1703.6973876953125 1707.200439453125 1710.71435546875 1713.9630126953125 1723.3885498046875 1731.5582275390625 1736.3494873046875 1745.5166015625 1758.483154296875
1978.7032470703125 1978.291259765625 1977.494873046875 1976.9290771484375 1974.6678466796875 1970.1414794921875 1965.2633056640625 1961.386962890625 1957.9124755859375 1952.51123046875 1945.465087890625 1939.865966796875 1934.81640625 1930.96044921875 1926.4097900390625 1915.1888427734375 1909.9058837890625 1913.7838134765625 1910.071044921875 1908.04443359375 1906.2484130859375 1902.959228515625 1900.3558349609375 1898.0203857421875 1893.0411376953125 1886.2281494140625 1880.3399658203125 1873.9932861328125 1865.03662109375 1858.924072265625 1852.7540283203125 1847.12158203125 1842.8531494140625 1839.5579833984375 1838.0262451171875 1836.3248291015625 1834.82861328125 1832.37353515625 1828.849365234375 1826.139892578125 1820.7569580078125 1815.8514404296875 1814.1754150390625 1812.5704345703125 1813.7340087890625 1818.2442626953125 1819.902099609375 1817.0369873046875 1816.2806396484375 1815.8797607421875 1805.0390625 1795.34765625 1788.783447265625 1785.364990234375 1783.5772705078125 1779.84912109375 1777.825439453125 1778.1861572265625 1777.7769775390625 1774.378662109375 1776.02734375 1776.0196533203125 1774.2564697265625 1771.3277587890625 1768.2725830078125 1764.1395263671875 1759.062744140625 1753.350830078125 1749.6341552734375 1747.6180419921875 1746.957763671875 1745.9949951171875 1743.478515625 1737.93896484375 1724.2783203125 1715.111083984375 1707.427734375 1700.7010498046875 1695.7626953125 1693.1083984375 1691.1446533203125 1686.227294921875 1680.4888916015625 1675.5611572265625 1669.4263916015625 1665.81591796875 1661.8963623046875 1658.4832763671875 1656.261962890625 1653.4022216796875 1648.824462890625 1644.711181640625 1640.5653076171875 1637.2900390625 1634.2535400390625 1631.67041015625 1629.3966064453125 1625.5980224609375 1622.4945068359375 1620.4296875 1615.1153564453125 1610.6766357421875 1608.2049560546875 1603.9962158203125 1601.7274169921875 1599.196533203125 1597.65478515625 1595.9190673828125 1594.5345458984375 1593.6112060546875 1592.1007080078125 1591.240966796875 1590.9273681640625 1590.639404296875 1590.478271484375 1590.01708984375 1589.888916015625 1589.8175048828125 1589.86572265625 1589.8321533203125 1589.716796875 1589.793701171875 1590.1588134765625 1590.123046875 1589.94287109375 1590.699462890625 1590.6602783203125 1590.7459716796875 1590.7364501953125 1590.6806640625 1590.7451171875 1590.833251953125 1590.114013671875 1591.36572265625 1591.241943359375 1591.4305419921875 1591.8839111328125 1591.9976806640625 1593.327880859375 1593.8310546875 1594.6165771484375 1596.7762451171875 1604.3046875 1607.4217529296875 1611.299560546875 1615.08642578125 1618.6468505859375 1623.884033203125 1630.4451904296875 1636.051513671875 1639.0755615234375 1645.054443359375 1649.0560302734375 1655.2872314453125 1660.6409912109375 1667.0794677734375 1673.4544677734375 1678.828369140625 1683.0191650390625 1688.4271240234375 1692.4808349609375 1697.5357666015625 1700.5010986328125 1704.51220703125 1708.1563720703125 1713.5816650390625 1719.357421875 1726.353271484375 1732.5213623046875 1742.519287109375
1983.7027587890625 1983.216064453125 1982.470947265625 1981.006591796875 1978.178466796875 1973.9713134765625 1969.593994140625 1964.418212890625 1960.2086181640625 1956.7294921875 1950.2479248046875 1944.4013671875 1941.9698486328125 1936.0667724609375 1929.6561279296875 1923.7540283203125 1918.44482421875 1922.078857421875 1917.7783203125 1914.9178466796875 1912.3214111328125 1907.97607421875 1905.451171875 1898.4771728515625 1890.765869140625 1885.1810302734375 1879.53076171875 1873.5836181640625 1866.1644287109375 1860.5770263671875 1856.196044921875 1851.3148193359375 1847.1236572265625 1844.1573486328125 1843.06005859375 1842.09716796875 1840.158935546875 1837.3369140625 1834.0928955078125 1831.13525390625 1824.4788818359375 1821.56494140625 1819.6678466796875 1818.796875 1819.691162109375 1823.599609375 1824.463134765625 1822.9117431640625 1822.7852783203125 1816.324462890625 1807.043701171875 1800.0645751953125 1792.98876953125 1794.5455322265625 1790.1226806640625 1788.8363037109375 1787.1309814453125 1786.9466552734375 1782.771484375 1782.3277587890625 1783.4736328125 1781.6822509765625 1779.926025390625 1776.574462890625 1774.473388671875 1770.44775390625 1766.2569580078125 1760.81103515625 1754.966796875 1751.9676513671875 1751.033447265625 1749.624755859375 1747.9306640625 1745.208984375 1729.7203369140625 1719.7166748046875 1712.95751953125 1706.4674072265625 1701.153076171875 1699.47998046875 1695.1455078125 1689.9580078125 1683.0494384765625 1677.31640625 1672.92333984375 1669.27978515625 1666.220458984375 1664.1207275390625 1660.7694091796875 1657.3558349609375 1653.1302490234375 1647.83056640625 1643.12060546875 1639.7772216796875 1637.4632568359375 1635.03857421875 1633.5003662109375 1630.36767578125 1627.4835205078125 1623.00439453125 1618.848876953125 1614.7271728515625 1611.6448974609375 1608.1077880859375 1604.74951171875 1602.1951904296875 1600.2047119140625 1597.618896484375 1595.0338134765625 1593.646728515625 1593.2574462890625 1591.3995361328125 1590.8175048828125 1590.674072265625 1590.568603515625 1590.15771484375 1590.070068359375 1589.70263671875 1589.9466552734375 1589.9091796875 1589.988525390625 1589.7579345703125 1590.091552734375 1590.1473388671875 1590.5328369140625 1590.6820068359375 1590.510498046875 1590.66845703125 1590.5677490234375 1590.52294921875 1590.8070068359375 1591.1773681640625 1591.2171630859375 1590.290283203125 1591.4532470703125 1591.6158447265625 1591.72265625 1593.218017578125 1594.307861328125 1593.097900390625 1594.5850830078125 1596.4752197265625 1602.355224609375 1605.275390625 1608.8245849609375 1612.180419921875 1616.693603515625 1621.707763671875 1626.7498779296875 1631.327392578125 1635.277587890625 1639.4002685546875 1645.766357421875 1650.9627685546875 1657.663818359375 1663.83984375 1667.7239990234375 1673.2218017578125 1677.4818115234375 1682.262939453125 1686.4879150390625 1691.0284423828125 1693.00341796875 1698.4173583984375 1703.9024658203125 1709.35693359375 1715.93017578125 1721.3865966796875 1727.528564453125 1732.8514404296875
1987.196044921875 1986.6361083984375 1985.18212890625 1984.360107421875 1982.482421875 1978.294921875 1973.2982177734375 1968.33544921875 1963.6827392578125 1959.4046630859375 1954.18798828125 1949.6527099609375 1945.6181640625 1939.352294921875 1933.792724609375 1929.493408203125 1929.1529541015625 1928.784912109375 1924.3045654296875 1920.5604248046875 1916.3026123046875 1912.64306640625 1906.6151123046875 1900.3116455078125 1892.0396728515625 1886.087158203125 1880.078857421875 1873.932373046875 1869.125 1863.961669921875 1858.973388671875 1854.3111572265625 1852.86865234375 1850.07275390625 1848.7469482421875 1847.35595703125 1844.9754638671875 1842.227294921875 1839.791748046875 1835.1519775390625 1832.014404296875 1827.7596435546875 1826.2039794921875 1824.753173828125 1824.945556640625 1829.16552734375 1828.4967041015625 1828.150634765625 1825.767822265625 1815.0830078125 1806.863525390625 1802.0936279296875 1801.407958984375 1801.5247802734375 1799.109619140625 1798.2783203125 1795.6138916015625 1792.8580322265625 1788.676025390625 1789.7279052734375 1789.8594970703125 1787.9228515625 1785.26953125 1784.03857421875 1781.852294921875 1778.3431396484375 1774.2451171875 1769.0247802734375 1761.3914794921875 1756.7674560546875 1754.7740478515625 1753.481689453125 1751.6220703125 1749.3983154296875 1737.991455078125 1727.749755859375 1719.3680419921875 1713.9766845703125 1707.6279296875 1704.9730224609375 1698.862548828125 1693.5911865234375 1687.407958984375 1681.7264404296875 1677.377197265625 1673.0892333984375 1671.2586669921875 1668.194091796875 1665.9573974609375 1661.517578125 1656.1456298828125 1650.971923828125 1646.54931640625 1643.384521484375 1641.222900390625 1639.4276123046875 1636.29833984375 1633.8382568359375 1629.78759765625 1625.657470703125 1622.112060546875 1618.3580322265625 1615.0623779296875 1612.0662841796875 1608.006103515625 1605.85693359375 1603.4771728515625 1600.1622314453125 1597.1973876953125 1594.7886962890625 1592.75830078125 1591.5791015625 1590.8402099609375 1590.53564453125 1590.398193359375 1590.347900390625 1590.121826171875 1589.927978515625 1590.06005859375 1589.9903564453125 1590.184814453125 1590.198486328125 1590.10791015625 1590.412841796875 1590.552490234375 1590.8865966796875 1590.584716796875 1590.536376953125 1590.4239501953125 1590.677978515625 1590.6177978515625 1591.0391845703125 1591.13916015625 1591.3311767578125 1590.3809814453125 1591.6842041015625 1591.717041015625 1592.693359375 1593.11962890625 1592.5008544921875 1593.6912841796875 1595.3182373046875 1597.9676513671875 1603.2650146484375 1607.4908447265625 1610.518798828125 1613.656494140625 1617.180908203125 1621.329833984375 1626.478271484375 1631.953857421875 1635.3455810546875 1641.7891845703125 1646.6761474609375 1652.490966796875 1658.0118408203125 1662.2200927734375 1668.2672119140625 1673.70703125 1677.16015625 1680.5013427734375 1683.93603515625 1689.5615234375 1693.1978759765625 1698.689697265625 1704.2607421875 1710.627197265625 1716.934814453125 1722.680419921875 1729.2060546875
1991.0302734375 1990.034423828125 1989.71875 1988.5567626953125 1986.9952392578125 1982.184814453125 1976.6307373046875 1973.22265625 1969.04248046875 1963.306884765625 1958.5806884765625 1954.420654296875 1949.41796875 1944.6290283203125 1939.4010009765625 1936.0244140625 1937.32470703125 1934.97998046875 1930.223388671875 1925.210693359375 1921.5804443359375 1913.1954345703125 1905.9935302734375 1898.9578857421875 1893.476318359375 1887.8553466796875 1882.283203125 1877.758056640625 1872.3411865234375 1866.4268798828125 1862.802001953125 1860.7344970703125 1857.537109375 1855.779541015625 1854.371337890625 1852.514404296875 1850.174072265625 1846.9478759765625 1844.8367919921875 1841.45458984375 1837.2686767578125 1836.0037841796875 1833.60791015625 1831.6785888671875 1831.0380859375 1834.5548095703125 1833.6375732421875 1832.803955078125 1824.45068359375 1815.181884765625 1810.515625 1809.0069580078125 1809.8756103515625 1809.24365234375 1809.4873046875 1805.8416748046875 1803.37646484375 1796.68408203125 1795.4722900390625 1797.1591796875 1795.6300048828125 1792.7791748046875 1791.9949951171875 1789.8773193359375 1788.5255126953125 1785.89599609375 1782.9000244140625 1778.40625 1770.8079833984375 1762.7667236328125 1760.06591796875 1757.442626953125 1755.4505615234375 1753.8717041015625 1742.8756103515625 1727.6746826171875 1721.2283935546875 1716.7310791015625 1713.2081298828125 1709.3468017578125 1705.0521240234375 1699.58056640625 1694.2813720703125 1686.5706787109375 1682.6962890625 1678.6826171875 1675.734130859375 1673.3291015625 1669.76123046875 1665.5665283203125 1660.5035400390625 1655.5264892578125 1650.4732666015625 1646.2630615234375 1645.2030029296875 1643.3079833984375 1641.0924072265625 1637.1094970703125 1632.720703125 1628.893310546875 1625.7132568359375 1622.37744140625 1619.5975341796875 1616.36572265625 1612.0780029296875 1609.3876953125 1605.71240234375 1602.732421875 1599.6990966796875 1596.1527099609375 1593.2718505859375 1591.865478515625 1591.0631103515625 1590.5810546875 1590.406005859375 1590.007080078125 1590.02587890625 1590.12841796875 1590.079345703125 1589.896728515625 1591.213623046875 1591.3211669921875 1590.410400390625 1590.644287109375 1591.98486328125 1591.7652587890625 1591.673095703125 1590.6025390625 1590.5732421875 1590.607421875 1590.8642578125 1590.7666015625 1591.30224609375 1591.524169921875 1591.6221923828125 1591.10009765625 1592.2198486328125 1591.822509765625 1591.8734130859375 1591.85791015625 1591.90869140625 1593.8150634765625 1596.034912109375 1600.2232666015625 1604.356201171875 1608.107666015625 1610.679931640625 1614.7169189453125 1619.62841796875 1624.0345458984375 1628.199462890625 1632.079345703125 1638.1846923828125 1641.3995361328125 1647.378173828125 1652.6055908203125 1656.7996826171875 1662.4078369140625 1666.2628173828125 1670.79638671875 1674.66259765625 1679.81591796875 1683.478515625 1689.07421875 1694.9215087890625 1701.4599609375 1710.2366943359375 1718.584228515625 1725.1666259765625 1730.51904296875
1995.91796875 1995.36962890625 1994.7252197265625 1993.766357421875 1991.6689453125 1987.3870849609375 1982.2989501953125 1978.7088623046875 1972.6697998046875 1968.65234375 1964.8006591796875 1958.6502685546875 1952.7008056640625 1947.02783203125 1943.2706298828125 1942.6148681640625 1943.0347900390625 1940.98974609375 1934.9267578125 1929.7872314453125 1923.40478515625 1914.6275634765625 1908.6795654296875 1901.6812744140625 1895.699951171875 1890.24853515625 1884.91357421875 1879.16357421875 1874.11083984375 1871.2918701171875 1869.3271484375 1865.363037109375 1862.849853515625 1862.3631591796875 1859.6298828125 1857.5360107421875 1854.9674072265625 1852.9420166015625 1850.4849853515625 1847.1690673828125 1843.5836181640625 1842.8348388671875 1841.657470703125 1839.8507080078125 1837.0491943359375 1841.25 1841.59033203125 1834.4605712890625 1824.7730712890625 1818.1390380859375 1815.5108642578125 1815.3985595703125 1815.6810302734375 1818.3697509765625 1816.91357421875 1812.8411865234375 1806.440185546875 1802.369140625 1803.9161376953125 1803.126220703125 1800.78515625 1799.568603515625 1798.100341796875 1796.6732177734375 1794.6019287109375 1791.9886474609375 1789.8634033203125 1787.133056640625 1781.540771484375 1771.3603515625 1765.7081298828125 1761.35107421875 1759.061279296875 1757.064208984375 1741.4222412109375 1737.3929443359375 1726.0897216796875 1722.634033203125 1719.8477783203125 1715.2122802734375 1711.3822021484375 1706.55419921875 1699.880615234375 1692.303466796875 1687.576416015625 1683.91259765625 1681.423828125 1678.4591064453125 1673.829833984375 1668.6881103515625 1663.576171875 1658.8544921875 1654.6004638671875 1652.03125 1649.1976318359375 1646.8782958984375 1643.48388671875 1639.3763427734375 1635.7069091796875 1632.4256591796875 1629.42578125 1626.546875 1623.0443115234375 1620.10693359375 1616.1513671875 1612.1131591796875 1608.4815673828125 1605.418212890625 1600.816162109375 1597.95458984375 1595.74072265625 1594.2940673828125 1592.97900390625 1592.123779296875 1591.511474609375 1590.2669677734375 1590.267578125 1590.0213623046875 1590.1650390625 1590.3497314453125 1590.405029296875 1591.5279541015625 1591.58740234375 1592.1929931640625 1593.14306640625 1593.626953125 1592.545654296875 1592.175537109375 1590.92626953125 1590.6151123046875 1590.843505859375 1591.0115966796875 1591.1846923828125 1591.6099853515625 1591.817138671875 1590.9609375 1592.08251953125 1592.1962890625 1591.9652099609375 1591.756103515625 1591.85888671875 1591.8419189453125 1595.67431640625 1596.95361328125 1603.21044921875 1606.1629638671875 1609.33837890625 1613.539306640625 1617.3448486328125 1622.500244140625 1626.351318359375 1631.314453125 1634.474365234375 1638.7257080078125 1642.2088623046875 1646.5269775390625 1651.2874755859375 1657.349365234375 1660.8641357421875 1664.866455078125 1669.656982421875 1675.00830078125 1679.024169921875 1685.4322509765625 1692.81884765625 1703.1568603515625 1711.2220458984375 1718.6689453125 1724.554931640625 1728.8349609375
2000.8638916015625 2000.9404296875 2000.2353515625 1999.2840576171875 1997.280029296875 1992.12841796875 1985.9779052734375 1982.56689453125 1977.626220703125 1975.4102783203125 1970.1416015625 1963.293212890625 1956.336181640625 1951.1806640625 1949.8465576171875 1948.6903076171875 1948.0615234375 1943.9791259765625 1938.595703125 1930.7437744140625 1922.814697265625 1916.4404296875 1909.9669189453125 1904.046142578125 1898.1748046875 1892.2738037109375 1887.14453125 1883.8765869140625 1881.494873046875 1877.199951171875 1872.682861328125 1871.036376953125 1868.61962890625 1867.6224365234375 1865.0380859375 1862.3001708984375 1860.1497802734375 1858.5032958984375 1856.2728271484375 1851.7294921875 1850.9912109375 1849.2825927734375 1848.5999755859375 1847.0103759765625 1845.4254150390625 1847.187744140625 1844.0523681640625 1834.0894775390625 1825.7061767578125 1822.044677734375 1821.797607421875 1821.9390869140625 1824.5123291015625 1827.53173828125 1822.4549560546875 1817.3929443359375 1810.50390625 1810.1619873046875 1811.1011962890625 1809.0755615234375 1806.8572998046875 1805.448974609375 1804.060791015625 1801.7476806640625 1800.4561767578125 1798.9569091796875 1795.8602294921875 1792.7677001953125 1790.27001953125 1783.724609375 1772.011962890625 1766.3299560546875 1763.7242431640625 1758.0789794921875 1748.4349365234375 1748.99267578125 1735.0926513671875 1732.2681884765625 1728.709228515625 1723.5235595703125 1719.35400390625 1713.6046142578125 1707.6900634765625 1699.635498046875 1693.5262451171875 1690.3009033203125 1687.13623046875 1683.3502197265625 1677.18017578125 1671.513916015625 1666.78759765625 1662.9744873046875 1658.793212890625 1656.4913330078125 1653.9805908203125 1649.9395751953125 1645.66015625 1642.580078125 1639.7142333984375 1636.812255859375 1633.552734375 1630.183349609375 1626.9251708984375 1623.0875244140625 1618.984375 1615.0228271484375 1610.84521484375 1606.9461669921875 1603.2220458984375 1600.0531005859375 1597.96337890625 1597.066162109375 1595.655517578125 1593.933349609375 1593.802001953125 1592.7977294921875 1591.2322998046875 1590.2396240234375 1590.177978515625 1590.1602783203125 1590.1746826171875 1590.7974853515625 1592.427978515625 1593.497802734375 1594.104736328125 1594.46142578125 1594.3875732421875 1593.611572265625 1591.369384765625 1591.1318359375 1590.87255859375 1591.248291015625 1591.174072265625 1591.6248779296875 1591.6483154296875 1591.902587890625 1590.8934326171875 1592.565673828125 1592.3231201171875 1591.9393310546875 1591.9044189453125 1592.010986328125 1593.5950927734375 1596.725830078125 1597.7310791015625 1603.73193359375 1607.2119140625 1611.3658447265625 1616.1309814453125 1620.9140625 1624.8486328125 1629.3145751953125 1632.0858154296875 1634.386962890625 1638.3890380859375 1642.721435546875 1647.5472412109375 1651.3140869140625 1655.7093505859375 1661.5916748046875 1666.966064453125 1670.6162109375 1678.3546142578125 1685.7469482421875 1694.2147216796875 1705.876220703125 1713.82373046875 1719.090576171875 1721.658935546875 1723.9801025390625
2005.5546875 2005.222900390625 2004.5093994140625 2003.7623291015625 2002.171630859375 1997.147705078125 1991.199462890625 1987.2679443359375 1981.77294921875 1981.242431640625 1974.7088623046875 1967.407470703125 1960.0421142578125 1957.4111328125 1956.4149169921875 1955.22900390625 1952.6612548828125 1945.5894775390625 1941.926025390625 1931.4046630859375 1924.5048828125 1918.9266357421875 1913.0595703125 1906.853759765625 1902.0682373046875 1897.5960693359375 1893.84228515625 1891.62548828125 1886.15869140625 1881.3258056640625 1877.515625 1876.80908203125 1874.81787109375 1872.983642578125 1869.9534912109375 1867.0389404296875 1865.027587890625 1863.9617919921875 1860.852294921875 1859.1239013671875 1857.8909912109375 1856.912109375 1856.5838623046875 1855.61279296875 1853.0924072265625 1853.4012451171875 1843.2994384765625 1834.2508544921875 1829.545654296875 1828.580810546875 1827.842041015625 1829.395751953125 1831.279296875 1833.605224609375 1826.9075927734375 1820.3292236328125 1815.941162109375 1817.8795166015625 1818.0174560546875 1814.4398193359375 1812.517333984375 1811.281982421875 1809.429443359375 1808.0399169921875 1806.162841796875 1804.4022216796875 1802.162109375 1799.57373046875 1795.781494140625 1792.888916015625 1785.19287109375 1773.4981689453125 1768.87646484375 1762.9619140625 1755.9307861328125 1755.4759521484375 1744.178955078125 1740.8349609375 1739.05615234375 1731.3934326171875 1725.4195556640625 1719.1683349609375 1713.2803955078125 1705.16796875 1699.9239501953125 1696.549560546875 1693.8131103515625 1688.25439453125 1681.011962890625 1674.7850341796875 1669.996826171875 1666.1656494140625 1663.4639892578125 1660.6754150390625 1658.0927734375 1653.581298828125 1649.9461669921875 1647.1224365234375 1644.22998046875 1640.7940673828125 1637.4915771484375 1633.591796875 1630.0465087890625 1626.62939453125 1621.1517333984375 1617.275390625 1613.3541259765625 1609.9854736328125 1605.8150634765625 1602.9615478515625 1601.279052734375 1600.2255859375 1598.3033447265625 1597.375732421875 1596.4388427734375 1594.2618408203125 1593.255859375 1591.7802734375 1591.1571044921875 1590.96240234375 1590.174072265625 1590.938232421875 1594.83056640625 1596.0948486328125 1596.03466796875 1596.0701904296875 1596.66845703125 1596.84130859375 1594.70703125 1590.9927978515625 1590.93994140625 1590.939453125 1591.3565673828125 1591.34228515625 1591.3167724609375 1591.8387451171875 1592.3309326171875 1590.941162109375 1592.753173828125 1592.5423583984375 1592.087890625 1592.2384033203125 1592.7037353515625 1595.05712890625 1597.4835205078125 1599.0968017578125 1604.4150390625 1608.8807373046875 1614.0321044921875 1619.9063720703125 1623.2142333984375 1627.494384765625 1630.6866455078125 1633.40185546875 1635.375 1639.2335205078125 1643.788330078125 1647.7738037109375 1654.4083251953125 1658.56005859375 1663.487548828125 1670.4512939453125 1676.9539794921875 1685.5491943359375 1695.6544189453125 1702.478515625 1710.239501953125 1713.912109375 1715.9227294921875 1720.2154541015625
