ncols  296
nrows  32
xllcenter  2405
yllcenter -4375
cellsize  5.00
nodata_value -9999.00
556.678881 553.294856 549.910398 546.525499 543.140148 539.754336 536.368053 532.981292 529.594043 526.206298 522.818048 519.429286 516.040005 512.650197 509.259856 505.868976 502.477551 499.085576 495.693047 492.299959 488.906310 485.512095 482.117314 478.721965 475.326047 471.929560 468.532504 465.134882 461.736694 458.337944 454.938635 451.538772 448.138361 444.737406 441.335915 437.933896 434.531356 431.128305 427.724752 424.320708 420.916185 417.511194 414.105748 410.699860 407.293545 403.886817 400.479692 397.072185 393.664312 390.256090 386.847538 383.438671 380.029509 376.620071 373.210374 369.800438 366.390282 362.979926 359.569389 356.158692 352.747853 349.336894 345.925833 342.514692 339.103488 335.692243 332.280976 328.869706 325.458452 322.047233 318.636068 315.224975 311.813971 308.403076 304.992305 301.581677 298.171206 294.760909 291.350803 287.940901 284.531218 281.121769 277.712566 274.303624 270.894955 267.486570 264.078482 260.670700 257.263237 253.856101 250.449302 247.042849 243.636750 240.231014 236.825647 233.420656 230.016048 226.611829 223.208004 219.804577 216.401554 212.998939 209.596734 206.194944 202.793571 199.392617 195.992085 192.591975 189.192290 185.793030 182.394196 178.995788 175.597806 172.200250 168.803118 165.406411 162.010127 158.614264 155.218820 151.823795 148.429186 145.034990 141.641205 138.247828 134.854857 131.462288 128.070118 124.678344 121.286962 117.895969 114.505362 111.115135 107.725286 104.335809 100.946702 97.557960 94.169578 90.781552 87.393878 84.006552 80.619568 77.232922 73.846609 70.460625 67.089084 63.812593 60.641339 57.572416 54.603114 51.730901 48.953407 46.268415 43.673845 41.167748 38.748292 36.413756 34.162524 31.993074 29.903976 27.893881 25.961522 24.105705 22.325307 20.619270 18.986598 17.426355 15.937662 14.519692 13.171668 11.892865 10.682600 9.540238 8.465186 7.456890 6.514838 5.638555 4.827603 4.081581 3.400122 2.782892 2.229592 1.739954 1.313743 0.950753 0.650812 0.413776 0.239531 0.127993 0.079108 0.074166 0.070952 0.067857 0.064876 0.062007 0.059246 0.056589 0.054035 0.051580 0.049220 0.046953 0.044776 0.042686 0.040681 0.038757 0.036911 0.035142 0.033447 0.031823 0.030267 0.028778 0.027353 0.025990 0.024686 0.023440 0.022249 0.021111 0.020025 0.018988 0.017999 0.017055 0.016155 0.015297 0.014480 0.013701 0.012960 0.012255 0.011584 0.010946 0.010339 0.009762 0.009215 0.008695 0.008201 0.007733 0.007289 0.006867 0.006468 0.006090 0.005732 0.005393 0.005072 0.004769 0.004482 0.004211 0.003954 0.003712 0.003484 0.003268 0.003065 0.002873 0.002692 0.002522 0.002362 0.002211 0.002069 0.001935 0.001809 0.001691 0.001580 0.001476 0.001378 0.001286 0.001199 0.001119 0.001043 0.000972 0.000905 0.000843 0.000785 0.000730 0.000679 0.000631 0.000587 0.000545 0.000506 0.000470 0.000436 0.000405 0.000375 0.000348 0.000323 0.000299 0.000277 0.000256 0.000237 0.000219 0.000203 0.000187 0.000173 0.000160 0.000147 0.000136 0.000126 0.000116 0.000107 0.000098
555.325019 551.944621 548.563928 545.182932 541.801626 538.420004 535.038060 531.655788 528.273181 524.890234 521.506940 518.123295 514.739294 511.354931 507.970203 504.585104 501.199630 497.813779 494.427547 491.040932 487.653929 484.266539 480.878759 477.490587 474.102024 470.713070 467.323723 463.933986 460.543860 457.153346 453.762446 450.371165 446.979504 443.587469 440.195063 436.802291 433.409160 430.015675 426.621843 423.227671 419.833167 416.438339 413.043195 409.647744 406.251996 402.855962 399.459651 396.063073 392.666242 389.269167 385.871860 382.474335 379.076602 375.678676 372.280568 368.882291 365.483860 362.085287 358.686587 355.287771 351.888855 348.489852 345.090776 341.691640 338.292457 334.893243 331.494009 328.094770 324.695538 321.296327 317.897149 314.498018 311.098946 307.699944 304.301025 300.902201 297.503483 294.104881 290.706408 287.308073 283.909886 280.511858 277.113997 273.716314 270.318816 266.921512 263.524410 260.127518 256.730843 253.334392 249.938172 246.542189 243.146448 239.750956 236.355717 232.960736 229.566018 226.171567 222.777387 219.383481 215.989853 212.596504 209.203439 205.810659 202.418166 199.025961 195.634047 192.242425 188.851095 185.460058 182.069315 178.678865 175.288710 171.898848 168.509279 165.120004 161.731020 158.342327 154.953924 151.565810 148.177983 144.790442 141.403185 138.016210 134.629515 131.243098 127.856958 124.471091 121.085495 117.700169 114.315108 110.930312 107.545776 104.161499 100.777477 97.393707 94.010187 90.626913 87.243883 83.861094 80.478541 77.096223 73.714135 70.332276 66.964759 63.692194 60.524769 57.459580 54.493919 51.625254 48.851217 46.169594 43.578305 41.075402 38.659055 36.327546 34.079258 31.912672 29.826359 27.818972 25.889246 24.035987 22.258073 20.554449 18.924120 17.366152 15.879666 14.463837 13.117890 11.841100 10.632788 9.492318 8.419098 7.412577 6.472243 5.597624 4.788282 4.043818 3.363865 2.748091 2.196199 1.707921 1.283023 0.921303 0.622586 0.386732 0.213627 0.103189 0.055364 0.051444 0.049215 0.047068 0.045001 0.043010 0.041095 0.039253 0.037481 0.035778 0.034141 0.032569 0.031059 0.029609 0.028218 0.026884 0.025604 0.024377 0.023201 0.022074 0.020995 0.019962 0.018974 0.018028 0.017124 0.016259 0.015433 0.014644 0.013891 0.013171 0.012485 0.011830 0.011206 0.010611 0.010044 0.009504 0.008990 0.008501 0.008035 0.007593 0.007172 0.006772 0.006392 0.006031 0.005689 0.005364 0.005056 0.004764 0.004487 0.004225 0.003976 0.003741 0.003518 0.003308 0.003109 0.002921 0.002743 0.002575 0.002417 0.002267 0.002126 0.001993 0.001868 0.001750 0.001638 0.001534 0.001435 0.001342 0.001255 0.001173 0.001096 0.001024 0.000956 0.000892 0.000832 0.000776 0.000723 0.000674 0.000628 0.000585 0.000544 0.000506 0.000471 0.000438 0.000407 0.000378 0.000351 0.000326 0.000303 0.000281 0.000260 0.000241 0.000224 0.000207 0.000192 0.000178 0.000164 0.000152 0.000141 0.000130 0.000120 0.000111 0.000102 0.000094 0.000087 0.000080 0.000074 0.000068
554.231073 550.853563 547.475866 544.097978 540.719893 537.341608 533.963120 530.584423 527.205514 523.826389 520.447045 517.067478 513.687686 510.307664 506.927410 503.546921 500.166195 496.785229 493.404021 490.022570 486.640873 483.258930 479.876740 476.494300 473.111612 469.728675 466.345489 462.962055 459.578373 456.194444 452.810270 449.425853 446.041194 442.656297 439.271163 435.885797 432.500201 429.114379 425.728336 422.342076 418.955604 415.568924 412.182043 408.794965 405.407698 402.020246 398.632618 395.244819 391.856856 388.468738 385.080470 381.692062 378.303521 374.914854 371.526070 368.137178 364.748185 361.359100 357.969932 354.580689 351.191381 347.802015 344.412601 341.023146 337.633661 334.244153 330.854631 327.465104 324.075580 320.686067 317.296574 313.907108 310.517679 307.128292 303.738957 300.349680 296.960468 293.571330 290.182272 286.793300 283.404422 280.015642 276.626969 273.238406 269.849960 266.461637 263.073441 259.685378 256.297452 252.909667 249.522028 246.134539 242.747204 239.360026 235.973009 232.586155 229.199468 225.812951 222.426605 219.040433 215.654437 212.268619 208.882981 205.497525 202.112250 198.727160 195.342253 191.957533 188.572998 185.188650 181.804489 178.420514 175.036727 171.653127 168.269714 164.886487 161.503446 158.120590 154.737919 151.355432 147.973129 144.591007 141.209066 137.827305 134.445723 131.064319 127.683090 124.302036 120.921155 117.540445 114.159905 110.779534 107.399329 104.019289 100.639412 97.259696 93.880139 90.500740 87.121496 83.742405 80.363466 76.984677 73.606035 70.227538 66.863303 63.593940 60.429638 57.367495 54.404803 51.539032 48.767816 46.088940 43.500327 41.000030 38.586220 36.257180 34.011295 31.847046 29.763005 27.757828 25.830249 23.979077 22.203192 20.501537 18.873120 17.317008 15.832323 14.418241 13.073989 11.798843 10.592124 9.453198 8.381473 7.376401 6.437471 5.564209 4.756182 4.012988 3.334265 2.719680 2.168936 1.681769 1.257944 0.897258 0.599542 0.364652 0.192478 0.082938 0.035979 0.032893 0.031468 0.030095 0.028773 0.027501 0.026276 0.025098 0.023966 0.022877 0.021830 0.020825 0.019859 0.018932 0.018043 0.017190 0.016371 0.015587 0.014835 0.014114 0.013424 0.012764 0.012132 0.011527 0.010949 0.010396 0.009868 0.009364 0.008882 0.008422 0.007983 0.007564 0.007165 0.006785 0.006422 0.006077 0.005748 0.005436 0.005138 0.004855 0.004586 0.004330 0.004087 0.003857 0.003638 0.003430 0.003233 0.003046 0.002869 0.002701 0.002542 0.002392 0.002250 0.002115 0.001988 0.001868 0.001754 0.001647 0.001545 0.001450 0.001359 0.001274 0.001194 0.001119 0.001048 0.000981 0.000918 0.000858 0.000802 0.000750 0.000701 0.000654 0.000611 0.000570 0.000532 0.000496 0.000463 0.000431 0.000402 0.000374 0.000348 0.000324 0.000301 0.000280 0.000260 0.000242 0.000225 0.000209 0.000194 0.000180 0.000167 0.000154 0.000143 0.000133 0.000123 0.000114 0.000105 0.000097 0.000090 0.000083 0.000077 0.000071 0.000065 0.000060 0.000056 0.000051 0.000047 0.000044
553.388506 550.013195 546.637779 543.262257 539.886625 536.510882 533.135024 529.759051 526.382959 523.006747 519.630412 516.253953 512.877368 509.500654 506.123811 502.746837 499.369731 495.992490 492.615114 489.237602 485.859953 482.482166 479.104241 475.726176 472.347973 468.969630 465.591148 462.212527 458.833767 455.454869 452.075833 448.696662 445.317355 441.937914 438.558341 435.178637 431.798805 428.418846 425.038762 421.658557 418.278233 414.897792 411.517238 408.136573 404.755802 401.374927 397.993953 394.612882 391.231720 387.850469 384.469135 381.087720 377.706231 374.324671 370.943044 367.561356 364.179611 360.797814 357.415969 354.034082 350.652157 347.270199 343.888214 340.506205 337.124178 333.742137 330.360088 326.978036 323.595984 320.213937 316.831901 313.449880 310.067878 306.685899 303.303948 299.922030 296.540147 293.158305 289.776507 286.394757 283.013058 279.631414 276.249829 272.868306 269.486847 266.105457 262.724137 259.342891 255.961722 252.580631 249.199622 245.818696 242.437856 239.057104 235.676441 232.295870 228.915392 225.535008 222.154721 218.774531 215.394439 212.014447 208.634555 205.254764 201.875076 198.495490 195.116008 191.736630 188.357356 184.978186 181.599120 178.220160 174.841304 171.462553 168.083907 164.705365 161.326928 157.948594 154.570364 151.192237 147.814213 144.436291 141.058470 137.680751 134.303131 130.925611 127.548190 124.170866 120.793640 117.416510 114.039475 110.662535 107.285688 103.908934 100.532271 97.155698 93.779215 90.402821 87.026513 83.650292 80.274155 76.898103 73.522133 70.146245 66.784557 63.517678 60.355799 57.296019 54.335631 51.472106 48.703078 46.026334 43.439798 40.941523 38.529681 36.202557 33.958536 31.796101 29.713824 27.710361 25.784449 23.934897 22.160585 20.460458 18.833526 17.278854 15.795567 14.382842 13.039906 11.766035 10.560553 9.422825 8.352262 7.348315 6.410473 5.538266 4.731258 3.989052 3.311282 2.697620 2.147769 1.661463 1.238471 0.878589 0.581649 0.347508 0.176057 0.067213 0.020927 0.018489 0.017688 0.016916 0.016173 0.015458 0.014770 0.014107 0.013471 0.012859 0.012271 0.011705 0.011163 0.010642 0.010142 0.009662 0.009202 0.008761 0.008338 0.007934 0.007546 0.007175 0.006819 0.006480 0.006155 0.005844 0.005547 0.005263 0.004992 0.004734 0.004487 0.004252 0.004028 0.003814 0.003610 0.003416 0.003231 0.003055 0.002888 0.002729 0.002578 0.002434 0.002297 0.002168 0.002045 0.001928 0.001817 0.001712 0.001613 0.001518 0.001429 0.001345 0.001265 0.001189 0.001117 0.001050 0.000986 0.000926 0.000869 0.000815 0.000764 0.000716 0.000671 0.000629 0.000589 0.000551 0.000516 0.000482 0.000451 0.000422 0.000394 0.000368 0.000343 0.000321 0.000299 0.000279 0.000260 0.000242 0.000226 0.000210 0.000196 0.000182 0.000169 0.000157 0.000146 0.000136 0.000126 0.000117 0.000109 0.000101 0.000094 0.000087 0.000080 0.000074 0.000069 0.000064 0.000059 0.000055 0.000051 0.000047 0.000043 0.000040 0.000037 0.000034 0.000031 0.000029 0.000027 0.000025
552.790996 549.417231 546.043420 542.669561 539.295655 535.921699 532.547692 529.173634 525.799524 522.425361 519.051143 515.676871 512.302542 508.928157 505.553715 502.179215 498.804656 495.430038 492.055360 488.680622 485.305823 481.930963 478.556042 475.181059 471.806015 468.430909 465.055741 461.680512 458.305221 454.929869 451.554457 448.178983 444.803450 441.427858 438.052207 434.676498 431.300732 427.924910 424.549032 421.173101 417.797116 414.421080 411.044994 407.668858 404.292675 400.916446 397.540173 394.163857 390.787500 387.411104 384.034671 380.658202 377.281699 373.905165 370.528601 367.152010 363.775393 360.398753 357.022092 353.645412 350.268715 346.892002 343.515278 340.138543 336.761799 333.385049 330.008296 326.631540 323.254784 319.878031 316.501282 313.124539 309.747805 306.371081 302.994369 299.617671 296.240988 292.864324 289.487679 286.111054 282.734453 279.357875 275.981323 272.604799 269.228303 265.851837 262.475402 259.099000 255.722632 252.346298 248.970000 245.593740 242.217517 238.841332 235.465188 232.089084 228.713021 225.337000 221.961021 218.585085 215.209193 211.833345 208.457542 205.081783 201.706070 198.330402 194.954779 191.579203 188.203673 184.828189 181.452752 178.077361 174.702016 171.326718 167.951466 164.576261 161.201101 157.825988 154.450921 151.075899 147.700923 144.325993 140.951107 137.576266 134.201469 130.826717 127.452008 124.077343 120.702721 117.328142 113.953604 110.579109 107.204655 103.830243 100.455871 97.081539 93.707246 90.332993 86.958779 83.584603 80.210464 76.836363 73.462298 70.088270 66.728396 63.463288 60.303137 57.245042 54.286296 51.424372 48.656905 45.981681 43.396625 40.899792 38.489355 36.163597 33.920905 31.759763 29.678744 27.676504 25.751781 23.903384 22.130194 20.431157 18.805283 17.251639 15.769349 14.357591 13.015594 11.742633 10.538032 9.401159 8.331424 7.328279 6.391214 5.519759 4.713479 3.971976 3.294888 2.681884 2.132669 1.646978 1.224579 0.865272 0.568885 0.335278 0.164342 0.055996 0.010189 0.008213 0.007857 0.007514 0.007184 0.006867 0.006561 0.006267 0.005984 0.005712 0.005451 0.005200 0.004959 0.004727 0.004505 0.004292 0.004088 0.003892 0.003704 0.003524 0.003352 0.003187 0.003029 0.002878 0.002734 0.002596 0.002464 0.002338 0.002218 0.002103 0.001993 0.001889 0.001789 0.001694 0.001604 0.001517 0.001435 0.001357 0.001283 0.001212 0.001145 0.001081 0.001021 0.000963 0.000908 0.000856 0.000807 0.000761 0.000716 0.000674 0.000635 0.000597 0.000562 0.000528 0.000496 0.000466 0.000438 0.000411 0.000386 0.000362 0.000339 0.000318 0.000298 0.000279 0.000262 0.000245 0.000229 0.000214 0.000200 0.000187 0.000175 0.000163 0.000153 0.000142 0.000133 0.000124 0.000115 0.000108 0.000100 0.000093 0.000087 0.000081 0.000075 0.000070 0.000065 0.000060 0.000056 0.000052 0.000048 0.000045 0.000042 0.000039 0.000036 0.000033 0.000031 0.000028 0.000026 0.000024 0.000022 0.000021 0.000019 0.000018 0.000016 0.000015 0.000014 0.000013 0.000012 0.000011
552.434189 549.061342 545.688484 542.315613 538.942731 535.569836 532.196929 528.824009 525.451076 522.078130 518.705170 515.332197 511.959209 508.586208 505.213192 501.840162 498.467117 495.094057 491.720983 488.347893 484.974789 481.601669 478.228533 474.855383 471.482217 468.109036 464.735839 461.362627 457.989400 454.616157 451.242899 447.869626 444.496338 441.123036 437.749718 434.376387 431.003041 427.629681 424.256307 420.882919 417.509519 414.136105 410.762679 407.389241 404.015791 400.642329 397.268857 393.895373 390.521879 387.148376 383.774863 380.401341 377.027811 373.654273 370.280728 366.907175 363.533617 360.160052 356.786482 353.412907 350.039328 346.665746 343.292160 339.918571 336.544980 333.171388 329.797795 326.424201 323.050607 319.677014 316.303422 312.929831 309.556242 306.182656 302.809073 299.435493 296.061917 292.688346 289.314779 285.941218 282.567662 279.194112 275.820569 272.447032 269.073503 265.699981 262.326466 258.952960 255.579462 252.205973 248.832493 245.459022 242.085560 238.712108 235.338666 231.965234 228.591813 225.218401 221.845001 218.471611 215.098232 211.724864 208.351507 204.978161 201.604826 198.231503 194.858191 191.484891 188.111602 184.738325 181.365059 177.991805 174.618562 171.245332 167.872112 164.498904 161.125708 157.752523 154.379350 151.006188 147.633038 144.259898 140.886770 137.513654 134.140548 130.767453 127.394370 124.021297 120.648234 117.275183 113.902142 110.529112 107.156091 103.783082 100.410082 97.037092 93.664112 90.291142 86.918182 83.545231 80.172290 76.799358 73.426435 70.053521 66.694735 63.430688 60.271572 57.214487 54.256726 51.395761 48.629229 45.954915 43.370747 40.874778 38.465182 36.140243 33.898348 31.737981 29.657715 27.656209 25.732198 23.884493 22.111976 20.413593 18.788353 17.235325 15.753633 14.342455 13.001019 11.728604 10.524532 9.388171 8.318933 7.316269 6.379669 5.508664 4.702821 3.961740 3.285060 2.672450 2.123616 1.638294 1.216251 0.857288 0.561233 0.327947 0.157320 0.049272 0.003752 0.002053 0.001964 0.001878 0.001796 0.001716 0.001640 0.001566 0.001496 0.001428 0.001362 0.001300 0.001239 0.001181 0.001126 0.001073 0.001022 0.000973 0.000926 0.000881 0.000838 0.000797 0.000757 0.000719 0.000683 0.000649 0.000616 0.000584 0.000554 0.000526 0.000498 0.000472 0.000447 0.000423 0.000401 0.000379 0.000359 0.000339 0.000321 0.000303 0.000286 0.000270 0.000255 0.000241 0.000227 0.000214 0.000202 0.000190 0.000179 0.000169 0.000159 0.000149 0.000140 0.000132 0.000124 0.000117 0.000109 0.000103 0.000096 0.000090 0.000085 0.000080 0.000075 0.000070 0.000065 0.000061 0.000057 0.000054 0.000050 0.000047 0.000044 0.000041 0.000038 0.000036 0.000033 0.000031 0.000029 0.000027 0.000025 0.000023 0.000022 0.000020 0.000019 0.000017 0.000016 0.000015 0.000014 0.000013 0.000012 0.000011 0.000010 0.000010 0.000009 0.000008 0.000008 0.000007 0.000007 0.000006 0.000006 0.000005 0.000005 0.000004 0.000004 0.000004 0.000003 0.000003 0.000003 0.000003
552.315534 548.942991 545.570449 542.197906 538.825363 535.452821 532.080278 528.707736 525.335193 521.962651 518.590108 515.217565 511.845023 508.472480 505.099938 501.727395 498.354852 494.982310 491.609767 488.237225 484.864682 481.492140 478.119597 474.747054 471.374512 468.001969 464.629427 461.256884 457.884341 454.511799 451.139256 447.766714 444.394171 441.021629 437.649086 434.276543 430.904001 427.531458 424.158916 420.786373 417.413830 414.041288 410.668745 407.296203 403.923660 400.551118 397.178575 393.806032 390.433490 387.060947 383.688405 380.315862 376.943319 373.570777 370.198234 366.825692 363.453149 360.080607 356.708064 353.335521 349.962979 346.590436 343.217894 339.845351 336.472808 333.100266 329.727723 326.355181 322.982638 319.610096 316.237553 312.865010 309.492468 306.119925 302.747383 299.374840 296.002297 292.629755 289.257212 285.884670 282.512127 279.139585 275.767042 272.394499 269.021957 265.649414 262.276872 258.904329 255.531786 252.159244 248.786701 245.414159 242.041616 238.669074 235.296531 231.923988 228.551446 225.178903 221.806361 218.433818 215.061275 211.688733 208.316190 204.943648 201.571105 198.198562 194.826020 191.453477 188.080935 184.708392 181.335850 177.963307 174.590764 171.218222 167.845679 164.473137 161.100594 157.728051 154.355509 150.982966 147.610424 144.237881 140.865339 137.492796 134.120253 130.747711 127.375168 124.002626 120.630083 117.257540 113.884998 110.512455 107.139913 103.767370 100.394828 97.022285 93.649742 90.277200 86.904657 83.532115 80.159572 76.787029 73.414487 70.041944 66.683520 63.419827 60.261056 57.204307 54.246873 51.386228 48.620008 45.945998 43.362125 40.866444 38.457128 36.132462 33.890832 31.730724 29.650709 27.649447 25.725673 23.878199 22.105906 20.407741 18.782712 17.229889 15.748396 14.337411 12.996163 11.723930 10.520034 9.383844 8.314771 7.312267 6.375822 5.504968 4.699269 3.958329 3.281785 2.669307 2.120600 1.635401 1.213477 0.854627 0.558683 0.325504 0.154980 0.047031 0.001607 0.000000 0.000000 0.000000 0.000000 0.000000 0.000000 0.000000 0.000000 0.000000 0.000000 0.000000 0.000000 0.000000 0.000000 0.000000 0.000000 0.000000 0.000000 0.000000 0.000000 0.000000 0.000000 0.000000 0.000000 0.000000 0.000000 0.000000 0.000000 0.000000 0.000000 0.000000 0.000000 0.000000 0.000000 0.000000 0.000000 0.000000 0.000000 0.000000 0.000000 0.000000 0.000000 0.000000 0.000000 0.000000 0.000000 0.000000 0.000000 0.000000 0.000000 0.000000 0.000000 0.000000 0.000000 0.000000 0.000000 0.000000 0.000000 0.000000 0.000000 0.000000 0.000000 0.000000 0.000000 0.000000 0.000000 0.000000 0.000000 0.000000 0.000000 0.000000 0.000000 0.000000 0.000000 0.000000 0.000000 0.000000 0.000000 0.000000 0.000000 0.000000 0.000000 0.000000 0.000000 0.000000 0.000000 0.000000 0.000000 0.000000 0.000000 0.000000 0.000000 0.000000 0.000000 0.000000 0.000000 0.000000 0.000000 0.000000 0.000000 0.000000 0.000000 0.000000 0.000000 0.000000 0.000000 0.000000
552.434189 549.061342 545.688484 542.315613 538.942731 535.569836 532.196929 528.824009 525.451076 522.078130 518.705170 515.332197 511.959209 508.586208 505.213192 501.840162 498.467117 495.094057 491.720983 488.347893 484.974789 481.601669 478.228533 474.855383 471.482217 468.109036 464.735839 461.362627 457.989400 454.616157 451.242899 447.869626 444.496338 441.123036 437.749718 434.376387 431.003041 427.629681 424.256307 420.882919 417.509519 414.136105 410.762679 407.389241 404.015791 400.642329 397.268857 393.895373 390.521879 387.148376 383.774863 380.401341 377.027811 373.654273 370.280728 366.907175 363.533617 360.160052 356.786482 353.412907 350.039328 346.665746 343.292160 339.918571 336.544980 333.171388 329.797795 326.424201 323.050607 319.677014 316.303422 312.929831 309.556242 306.182656 302.809073 299.435493 296.061917 292.688346 289.314779 285.941218 282.567662 279.194112 275.820569 272.447032 269.073503 265.699981 262.326466 258.952960 255.579462 252.205973 248.832493 245.459022 242.085560 238.712108 235.338666 231.965234 228.591813 225.218401 221.845001 218.471611 215.098232 211.724864 208.351507 204.978161 201.604826 198.231503 194.858191 191.484891 188.111602 184.738325 181.365059 177.991805 174.618562 171.245332 167.872112 164.498904 161.125708 157.752523 154.379350 151.006188 147.633038 144.259898 140.886770 137.513654 134.140548 130.767453 127.394370 124.021297 120.648234 117.275183 113.902142 110.529112 107.156091 103.783082 100.410082 97.037092 93.664112 90.291142 86.918182 83.545231 80.172290 76.799358 73.426435 70.053521 66.694735 63.430688 60.271572 57.214487 54.256726 51.395761 48.629229 45.954915 43.370747 40.874778 38.465182 36.140243 33.898348 31.737981 29.657715 27.656209 25.732198 23.884493 22.111976 20.413593 18.788353 17.235325 15.753633 14.342455 13.001019 11.728604 10.524532 9.388171 8.318933 7.316269 6.379669 5.508664 4.702821 3.961740 3.285060 2.672450 2.123616 1.638294 1.216251 0.857288 0.561233 0.327947 0.157320 0.049272 0.003752 0.002053 0.001964 0.001878 0.001796 0.001716 0.001640 0.001566 0.001496 0.001428 0.001362 0.001300 0.001239 0.001181 0.001126 0.001073 0.001022 0.000973 0.000926 0.000881 0.000838 0.000797 0.000757 0.000719 0.000683 0.000649 0.000616 0.000584 0.000554 0.000526 0.000498 0.000472 0.000447 0.000423 0.000401 0.000379 0.000359 0.000339 0.000321 0.000303 0.000286 0.000270 0.000255 0.000241 0.000227 0.000214 0.000202 0.000190 0.000179 0.000169 0.000159 0.000149 0.000140 0.000132 0.000124 0.000117 0.000109 0.000103 0.000096 0.000090 0.000085 0.000080 0.000075 0.000070 0.000065 0.000061 0.000057 0.000054 0.000050 0.000047 0.000044 0.000041 0.000038 0.000036 0.000033 0.000031 0.000029 0.000027 0.000025 0.000023 0.000022 0.000020 0.000019 0.000017 0.000016 0.000015 0.000014 0.000013 0.000012 0.000011 0.000010 0.000010 0.000009 0.000008 0.000008 0.000007 0.000007 0.000006 0.000006 0.000005 0.000005 0.000004 0.000004 0.000004 0.000003 0.000003 0.000003 0.000003
552.790996 549.417231 546.043420 542.669561 539.295655 535.921699 532.547692 529.173634 525.799524 522.425361 519.051143 515.676871 512.302542 508.928157 505.553715 502.179215 498.804656 495.430038 492.055360 488.680622 485.305823 481.930963 478.556042 475.181059 471.806015 468.430909 465.055741 461.680512 458.305221 454.929869 451.554457 448.178983 444.803450 441.427858 438.052207 434.676498 431.300732 427.924910 424.549032 421.173101 417.797116 414.421080 411.044994 407.668858 404.292675 400.916446 397.540173 394.163857 390.787500 387.411104 384.034671 380.658202 377.281699 373.905165 370.528601 367.152010 363.775393 360.398753 357.022092 353.645412 350.268715 346.892002 343.515278 340.138543 336.761799 333.385049 330.008296 326.631540 323.254784 319.878031 316.501282 313.124539 309.747805 306.371081 302.994369 299.617671 296.240988 292.864324 289.487679 286.111054 282.734453 279.357875 275.981323 272.604799 269.228303 265.851837 262.475402 259.099000 255.722632 252.346298 248.970000 245.593740 242.217517 238.841332 235.465188 232.089084 228.713021 225.337000 221.961021 218.585085 215.209193 211.833345 208.457542 205.081783 201.706070 198.330402 194.954779 191.579203 188.203673 184.828189 181.452752 178.077361 174.702016 171.326718 167.951466 164.576261 161.201101 157.825988 154.450921 151.075899 147.700923 144.325993 140.951107 137.576266 134.201469 130.826717 127.452008 124.077343 120.702721 117.328142 113.953604 110.579109 107.204655 103.830243 100.455871 97.081539 93.707246 90.332993 86.958779 83.584603 80.210464 76.836363 73.462298 70.088270 66.728396 63.463288 60.303137 57.245042 54.286296 51.424372 48.656905 45.981681 43.396625 40.899792 38.489355 36.163597 33.920905 31.759763 29.678744 27.676504 25.751781 23.903384 22.130194 20.431157 18.805283 17.251639 15.769349 14.357591 13.015594 11.742633 10.538032 9.401159 8.331424 7.328279 6.391214 5.519759 4.713479 3.971976 3.294888 2.681884 2.132669 1.646978 1.224579 0.865272 0.568885 0.335278 0.164342 0.055996 0.010189 0.008213 0.007857 0.007514 0.007184 0.006867 0.006561 0.006267 0.005984 0.005712 0.005451 0.005200 0.004959 0.004727 0.004505 0.004292 0.004088 0.003892 0.003704 0.003524 0.003352 0.003187 0.003029 0.002878 0.002734 0.002596 0.002464 0.002338 0.002218 0.002103 0.001993 0.001889 0.001789 0.001694 0.001604 0.001517 0.001435 0.001357 0.001283 0.001212 0.001145 0.001081 0.001021 0.000963 0.000908 0.000856 0.000807 0.000761 0.000716 0.000674 0.000635 0.000597 0.000562 0.000528 0.000496 0.000466 0.000438 0.000411 0.000386 0.000362 0.000339 0.000318 0.000298 0.000279 0.000262 0.000245 0.000229 0.000214 0.000200 0.000187 0.000175 0.000163 0.000153 0.000142 0.000133 0.000124 0.000115 0.000108 0.000100 0.000093 0.000087 0.000081 0.000075 0.000070 0.000065 0.000060 0.000056 0.000052 0.000048 0.000045 0.000042 0.000039 0.000036 0.000033 0.000031 0.000028 0.000026 0.000024 0.000022 0.000021 0.000019 0.000018 0.000016 0.000015 0.000014 0.000013 0.000012 0.000011
553.388506 550.013195 546.637779 543.262257 539.886625 536.510882 533.135024 529.759051 526.382959 523.006747 519.630412 516.253953 512.877368 509.500654 506.123811 502.746837 499.369731 495.992490 492.615114 489.237602 485.859953 482.482166 479.104241 475.726176 472.347973 468.969630 465.591148 462.212527 458.833767 455.454869 452.075833 448.696662 445.317355 441.937914 438.558341 435.178637 431.798805 428.418846 425.038762 421.658557 418.278233 414.897792 411.517238 408.136573 404.755802 401.374927 397.993953 394.612882 391.231720 387.850469 384.469135 381.087720 377.706231 374.324671 370.943044 367.561356 364.179611 360.797814 357.415969 354.034082 350.652157 347.270199 343.888214 340.506205 337.124178 333.742137 330.360088 326.978036 323.595984 320.213937 316.831901 313.449880 310.067878 306.685899 303.303948 299.922030 296.540147 293.158305 289.776507 286.394757 283.013058 279.631414 276.249829 272.868306 269.486847 266.105457 262.724137 259.342891 255.961722 252.580631 249.199622 245.818696 242.437856 239.057104 235.676441 232.295870 228.915392 225.535008 222.154721 218.774531 215.394439 212.014447 208.634555 205.254764 201.875076 198.495490 195.116008 191.736630 188.357356 184.978186 181.599120 178.220160 174.841304 171.462553 168.083907 164.705365 161.326928 157.948594 154.570364 151.192237 147.814213 144.436291 141.058470 137.680751 134.303131 130.925611 127.548190 124.170866 120.793640 117.416510 114.039475 110.662535 107.285688 103.908934 100.532271 97.155698 93.779215 90.402821 87.026513 83.650292 80.274155 76.898103 73.522133 70.146245 66.784557 63.517678 60.355799 57.296019 54.335631 51.472106 48.703078 46.026334 43.439798 40.941523 38.529681 36.202557 33.958536 31.796101 29.713824 27.710361 25.784449 23.934897 22.160585 20.460458 18.833526 17.278854 15.795567 14.382842 13.039906 11.766035 10.560553 9.422825 8.352262 7.348315 6.410473 5.538266 4.731258 3.989052 3.311282 2.697620 2.147769 1.661463 1.238471 0.878589 0.581649 0.347508 0.176057 0.067213 0.020927 0.018489 0.017688 0.016916 0.016173 0.015458 0.014770 0.014107 0.013471 0.012859 0.012271 0.011705 0.011163 0.010642 0.010142 0.009662 0.009202 0.008761 0.008338 0.007934 0.007546 0.007175 0.006819 0.006480 0.006155 0.005844 0.005547 0.005263 0.004992 0.004734 0.004487 0.004252 0.004028 0.003814 0.003610 0.003416 0.003231 0.003055 0.002888 0.002729 0.002578 0.002434 0.002297 0.002168 0.002045 0.001928 0.001817 0.001712 0.001613 0.001518 0.001429 0.001345 0.001265 0.001189 0.001117 0.001050 0.000986 0.000926 0.000869 0.000815 0.000764 0.000716 0.000671 0.000629 0.000589 0.000551 0.000516 0.000482 0.000451 0.000422 0.000394 0.000368 0.000343 0.000321 0.000299 0.000279 0.000260 0.000242 0.000226 0.000210 0.000196 0.000182 0.000169 0.000157 0.000146 0.000136 0.000126 0.000117 0.000109 0.000101 0.000094 0.000087 0.000080 0.000074 0.000069 0.000064 0.000059 0.000055 0.000051 0.000047 0.000043 0.000040 0.000037 0.000034 0.000031 0.000029 0.000027 0.000025
554.231073 550.853563 547.475866 544.097978 540.719893 537.341608 533.963120 530.584423 527.205514 523.826389 520.447045 517.067478 513.687686 510.307664 506.927410 503.546921 500.166195 496.785229 493.404021 490.022570 486.640873 483.258930 479.876740 476.494300 473.111612 469.728675 466.345489 462.962055 459.578373 456.194444 452.810270 449.425853 446.041194 442.656297 439.271163 435.885797 432.500201 429.114379 425.728336 422.342076 418.955604 415.568924 412.182043 408.794965 405.407698 402.020246 398.632618 395.244819 391.856856 388.468738 385.080470 381.692062 378.303521 374.914854 371.526070 368.137178 364.748185 361.359100 357.969932 354.580689 351.191381 347.802015 344.412601 341.023146 337.633661 334.244153 330.854631 327.465104 324.075580 320.686067 317.296574 313.907108 310.517679 307.128292 303.738957 300.349680 296.960468 293.571330 290.182272 286.793300 283.404422 280.015642 276.626969 273.238406 269.849960 266.461637 263.073441 259.685378 256.297452 252.909667 249.522028 246.134539 242.747204 239.360026 235.973009 232.586155 229.199468 225.812951 222.426605 219.040433 215.654437 212.268619 208.882981 205.497525 202.112250 198.727160 195.342253 191.957533 188.572998 185.188650 181.804489 178.420514 175.036727 171.653127 168.269714 164.886487 161.503446 158.120590 154.737919 151.355432 147.973129 144.591007 141.209066 137.827305 134.445723 131.064319 127.683090 124.302036 120.921155 117.540445 114.159905 110.779534 107.399329 104.019289 100.639412 97.259696 93.880139 90.500740 87.121496 83.742405 80.363466 76.984677 73.606035 70.227538 66.863303 63.593940 60.429638 57.367495 54.404803 51.539032 48.767816 46.088940 43.500327 41.000030 38.586220 36.257180 34.011295 31.847046 29.763005 27.757828 25.830249 23.979077 22.203192 20.501537 18.873120 17.317008 15.832323 14.418241 13.073989 11.798843 10.592124 9.453198 8.381473 7.376401 6.437471 5.564209 4.756182 4.012988 3.334265 2.719680 2.168936 1.681769 1.257944 0.897258 0.599542 0.364652 0.192478 0.082938 0.035979 0.032893 0.031468 0.030095 0.028773 0.027501 0.026276 0.025098 0.023966 0.022877 0.021830 0.020825 0.019859 0.018932 0.018043 0.017190 0.016371 0.015587 0.014835 0.014114 0.013424 0.012764 0.012132 0.011527 0.010949 0.010396 0.009868 0.009364 0.008882 0.008422 0.007983 0.007564 0.007165 0.006785 0.006422 0.006077 0.005748 0.005436 0.005138 0.004855 0.004586 0.004330 0.004087 0.003857 0.003638 0.003430 0.003233 0.003046 0.002869 0.002701 0.002542 0.002392 0.002250 0.002115 0.001988 0.001868 0.001754 0.001647 0.001545 0.001450 0.001359 0.001274 0.001194 0.001119 0.001048 0.000981 0.000918 0.000858 0.000802 0.000750 0.000701 0.000654 0.000611 0.000570 0.000532 0.000496 0.000463 0.000431 0.000402 0.000374 0.000348 0.000324 0.000301 0.000280 0.000260 0.000242 0.000225 0.000209 0.000194 0.000180 0.000167 0.000154 0.000143 0.000133 0.000123 0.000114 0.000105 0.000097 0.000090 0.000083 0.000077 0.000071 0.000065 0.000060 0.000056 0.000051 0.000047 0.000044
555.325019 551.944621 548.563928 545.182932 541.801626 538.420004 535.038060 531.655788 528.273181 524.890234 521.506940 518.123295 514.739294 511.354931 507.970203 504.585104 501.199630 497.813779 494.427547 491.040932 487.653929 484.266539 480.878759 477.490587 474.102024 470.713070 467.323723 463.933986 460.543860 457.153346 453.762446 450.371165 446.979504 443.587469 440.195063 436.802291 433.409160 430.015675 426.621843 423.227671 419.833167 416.438339 413.043195 409.647744 406.251996 402.855962 399.459651 396.063073 392.666242 389.269167 385.871860 382.474335 379.076602 375.678676 372.280568 368.882291 365.483860 362.085287 358.686587 355.287771 351.888855 348.489852 345.090776 341.691640 338.292457 334.893243 331.494009 328.094770 324.695538 321.296327 317.897149 314.498018 311.098946 307.699944 304.301025 300.902201 297.503483 294.104881 290.706408 287.308073 283.909886 280.511858 277.113997 273.716314 270.318816 266.921512 263.524410 260.127518 256.730843 253.334392 249.938172 246.542189 243.146448 239.750956 236.355717 232.960736 229.566018 226.171567 222.777387 219.383481 215.989853 212.596504 209.203439 205.810659 202.418166 199.025961 195.634047 192.242425 188.851095 185.460058 182.069315 178.678865 175.288710 171.898848 168.509279 165.120004 161.731020 158.342327 154.953924 151.565810 148.177983 144.790442 141.403185 138.016210 134.629515 131.243098 127.856958 124.471091 121.085495 117.700169 114.315108 110.930312 107.545776 104.161499 100.777477 97.393707 94.010187 90.626913 87.243883 83.861094 80.478541 77.096223 73.714135 70.332276 66.964759 63.692194 60.524769 57.459580 54.493919 51.625254 48.851217 46.169594 43.578305 41.075402 38.659055 36.327546 34.079258 31.912672 29.826359 27.818972 25.889246 24.035987 22.258073 20.554449 18.924120 17.366152 15.879666 14.463837 13.117890 11.841100 10.632788 9.492318 8.419098 7.412577 6.472243 5.597624 4.788282 4.043818 3.363865 2.748091 2.196199 1.707921 1.283023 0.921303 0.622586 0.386732 0.213627 0.103189 0.055364 0.051444 0.049215 0.047068 0.045001 0.043010 0.041095 0.039253 0.037481 0.035778 0.034141 0.032569 0.031059 0.029609 0.028218 0.026884 0.025604 0.024377 0.023201 0.022074 0.020995 0.019962 0.018974 0.018028 0.017124 0.016259 0.015433 0.014644 0.013891 0.013171 0.012485 0.011830 0.011206 0.010611 0.010044 0.009504 0.008990 0.008501 0.008035 0.007593 0.007172 0.006772 0.006392 0.006031 0.005689 0.005364 0.005056 0.004764 0.004487 0.004225 0.003976 0.003741 0.003518 0.003308 0.003109 0.002921 0.002743 0.002575 0.002417 0.002267 0.002126 0.001993 0.001868 0.001750 0.001638 0.001534 0.001435 0.001342 0.001255 0.001173 0.001096 0.001024 0.000956 0.000892 0.000832 0.000776 0.000723 0.000674 0.000628 0.000585 0.000544 0.000506 0.000471 0.000438 0.000407 0.000378 0.000351 0.000326 0.000303 0.000281 0.000260 0.000241 0.000224 0.000207 0.000192 0.000178 0.000164 0.000152 0.000141 0.000130 0.000120 0.000111 0.000102 0.000094 0.000087 0.000080 0.000074 0.000068
556.678881 553.294856 549.910398 546.525499 543.140148 539.754336 536.368053 532.981292 529.594043 526.206298 522.818048 519.429286 516.040005 512.650197 509.259856 505.868976 502.477551 499.085576 495.693047 492.299959 488.906310 485.512095 482.117314 478.721965 475.326047 471.929560 468.532504 465.134882 461.736694 458.337944 454.938635 451.538772 448.138361 444.737406 441.335915 437.933896 434.531356 431.128305 427.724752 424.320708 420.916185 417.511194 414.105748 410.699860 407.293545 403.886817 400.479692 397.072185 393.664312 390.256090 386.847538 383.438671 380.029509 376.620071 373.210374 369.800438 366.390282 362.979926 359.569389 356.158692 352.747853 349.336894 345.925833 342.514692 339.103488 335.692243 332.280976 328.869706 325.458452 322.047233 318.636068 315.224975 311.813971 308.403076 304.992305 301.581677 298.171206 294.760909 291.350803 287.940901 284.531218 281.121769 277.712566 274.303624 270.894955 267.486570 264.078482 260.670700 257.263237 253.856101 250.449302 247.042849 243.636750 240.231014 236.825647 233.420656 230.016048 226.611829 223.208004 219.804577 216.401554 212.998939 209.596734 206.194944 202.793571 199.392617 195.992085 192.591975 189.192290 185.793030 182.394196 178.995788 175.597806 172.200250 168.803118 165.406411 162.010127 158.614264 155.218820 151.823795 148.429186 145.034990 141.641205 138.247828 134.854857 131.462288 128.070118 124.678344 121.286962 117.895969 114.505362 111.115135 107.725286 104.335809 100.946702 97.557960 94.169578 90.781552 87.393878 84.006552 80.619568 77.232922 73.846609 70.460625 67.089084 63.812593 60.641339 57.572416 54.603114 51.730901 48.953407 46.268415 43.673845 41.167748 38.748292 36.413756 34.162524 31.993074 29.903976 27.893881 25.961522 24.105705 22.325307 20.619270 18.986598 17.426355 15.937662 14.519692 13.171668 11.892865 10.682600 9.540238 8.465186 7.456890 6.514838 5.638555 4.827603 4.081581 3.400122 2.782892 2.229592 1.739954 1.313743 0.950753 0.650812 0.413776 0.239531 0.127993 0.079108 0.074166 0.070952 0.067857 0.064876 0.062007 0.059246 0.056589 0.054035 0.051580 0.049220 0.046953 0.044776 0.042686 0.040681 0.038757 0.036911 0.035142 0.033447 0.031823 0.030267 0.028778 0.027353 0.025990 0.024686 0.023440 0.022249 0.021111 0.020025 0.018988 0.017999 0.017055 0.016155 0.015297 0.014480 0.013701 0.012960 0.012255 0.011584 0.010946 0.010339 0.009762 0.009215 0.008695 0.008201 0.007733 0.007289 0.006867 0.006468 0.006090 0.005732 0.005393 0.005072 0.004769 0.004482 0.004211 0.003954 0.003712 0.003484 0.003268 0.003065 0.002873 0.002692 0.002522 0.002362 0.002211 0.002069 0.001935 0.001809 0.001691 0.001580 0.001476 0.001378 0.001286 0.001199 0.001119 0.001043 0.000972 0.000905 0.000843 0.000785 0.000730 0.000679 0.000631 0.000587 0.000545 0.000506 0.000470 0.000436 0.000405 0.000375 0.000348 0.000323 0.000299 0.000277 0.000256 0.000237 0.000219 0.000203 0.000187 0.000173 0.000160 0.000147 0.000136 0.000126 0.000116 0.000107 0.000098
558.303772 554.915309 551.526249 548.136578 544.746282 541.355348 537.963765 534.571519 531.178600 527.784994 524.390692 520.995682 517.599956 514.203502 510.806313 507.408380 504.009695 500.610252 497.210045 493.809069 490.407318 487.004790 483.601482 480.197392 476.792519 473.386863 469.980426 466.573210 463.165218 459.756454 456.346924 452.936633 449.525591 446.113804 442.701283 439.288038 435.874081 432.459425 429.044084 425.628073 422.211407 418.794104 415.376181 411.957657 408.538552 405.118885 401.698679 398.277955 394.856736 391.435045 388.012907 384.590345 381.167386 377.744054 374.320376 370.896379 367.472087 364.047530 360.622733 357.197724 353.772531 350.347180 346.921699 343.496116 340.070457 336.644750 333.219021 329.793296 326.367603 322.941967 319.516412 316.090965 312.665650 309.240490 305.815510 302.390732 298.966179 295.541872 292.117833 288.694081 285.270638 281.847521 278.424750 275.002341 271.580313 268.158681 264.737460 261.316667 257.896314 254.476415 251.056983 247.638030 244.219567 240.801605 237.384153 233.967221 230.550816 227.134948 223.719623 220.304847 216.890627 213.476968 210.063874 206.651351 203.239400 199.828027 196.417232 193.007019 189.597388 186.188341 182.779878 179.372000 175.964707 172.557997 169.151870 165.746324 162.341358 158.936969 155.533156 152.129915 148.727243 145.325138 141.923595 138.522611 135.122182 131.722304 128.322972 124.924181 121.525927 118.128205 114.731009 111.334335 107.938176 104.542527 101.147383 97.752737 94.358585 90.964918 87.571733 84.179021 80.786778 77.394997 74.003671 70.612794 67.236478 63.955329 60.779532 57.706179 54.732558 51.856136 49.074541 46.385554 43.787093 41.277208 38.854064 36.515940 34.261216 32.088370 29.995968 27.982662 26.047182 24.188333 22.404989 20.696091 19.060641 17.497702 16.006392 14.585883 13.235398 11.954207 10.741629 9.597025 8.519800 7.509400 6.565311 5.687056 4.874196 4.126328 3.443084 2.824128 2.269160 1.777910 1.350142 0.985649 0.684257 0.445820 0.270223 0.157382 0.107241 0.101088 0.096707 0.092488 0.088425 0.084514 0.080750 0.077130 0.073648 0.070302 0.067085 0.063996 0.061028 0.058180 0.055446 0.052823 0.050308 0.047897 0.045586 0.043372 0.041252 0.039223 0.037281 0.035423 0.033646 0.031947 0.030324 0.028773 0.027293 0.025879 0.024531 0.023244 0.022018 0.020849 0.019735 0.018674 0.017664 0.016702 0.015788 0.014918 0.014091 0.013305 0.012559 0.011850 0.011177 0.010539 0.009934 0.009360 0.008816 0.008300 0.007812 0.007350 0.006913 0.006499 0.006108 0.005739 0.005389 0.005060 0.004748 0.004454 0.004177 0.003916 0.003670 0.003437 0.003219 0.003013 0.002819 0.002637 0.002466 0.002305 0.002153 0.002011 0.001878 0.001752 0.001635 0.001525 0.001421 0.001324 0.001234 0.001149 0.001069 0.000995 0.000926 0.000861 0.000800 0.000743 0.000690 0.000641 0.000595 0.000552 0.000512 0.000474 0.000440 0.000407 0.000377 0.000349 0.000323 0.000299 0.000276 0.000255 0.000236 0.000218 0.000201 0.000185 0.000171 0.000158 0.000145 0.000134
560.213880 556.820082 553.425487 550.030078 546.633837 543.236749 539.838795 536.439960 533.040229 529.639586 526.238017 522.835507 519.432045 516.027618 512.622214 509.215823 505.808435 502.400041 498.990634 495.580207 492.168755 488.756273 485.342759 481.928210 478.512626 475.096007 471.678357 468.259677 464.839972 461.419250 457.997517 454.574783 451.151058 447.726354 444.300684 440.874063 437.446507 434.018033 430.588661 427.158411 423.727304 420.295363 416.862612 413.429076 409.994782 406.559758 403.124031 399.687631 396.250589 392.812936 389.374704 385.935926 382.496635 379.056865 375.616652 372.176030 368.735034 365.293701 361.852066 358.410164 354.968034 351.525710 348.083228 344.640625 341.197937 337.755199 334.312446 330.869714 327.427035 323.984446 320.541978 317.099664 313.657538 310.215630 306.773970 303.332590 299.891518 296.450782 293.010410 289.570429 286.130864 282.691741 279.253083 275.814912 272.377253 268.940124 265.503547 262.067540 258.632122 255.197311 251.763121 248.329570 244.896670 241.464436 238.032881 234.602015 231.171850 227.742396 224.313662 220.885657 217.458387 214.031859 210.606079 207.181054 203.756786 200.333279 196.910538 193.488564 190.067359 186.646924 183.227260 179.808367 176.390244 172.972890 169.556305 166.140484 162.725427 159.311131 155.897591 152.484805 149.072768 145.661475 142.250923 138.841105 135.432016 132.023652 128.616005 125.209069 121.802839 118.397307 114.992466 111.588309 108.184830 104.782021 101.379873 97.978380 94.577534 91.177326 87.777748 84.378793 80.980452 77.582716 74.185578 70.789028 67.407178 64.120630 60.939567 57.861080 54.882454 52.001154 49.214807 46.521191 43.918222 41.403947 38.976530 36.634248 34.375479 32.198699 30.102471 28.085446 26.146351 24.283990 22.497234 20.785022 19.146355 17.580293 16.085954 14.662505 13.309169 12.025214 10.809956 9.662756 8.583015 7.570180 6.623732 5.743194 4.928125 4.178120 3.492809 2.871855 2.314956 1.821840 1.392270 1.026037 0.722964 0.482906 0.305745 0.191396 0.139800 0.132245 0.126514 0.120994 0.115678 0.110561 0.105637 0.100901 0.096346 0.091968 0.087760 0.083718 0.079836 0.076109 0.072533 0.069102 0.065812 0.062657 0.059634 0.056738 0.053965 0.051310 0.048769 0.046338 0.044014 0.041792 0.039668 0.037640 0.035703 0.033854 0.032090 0.030407 0.028802 0.027273 0.025816 0.024428 0.023106 0.021849 0.020652 0.019515 0.018433 0.017405 0.016429 0.015502 0.014622 0.013787 0.012995 0.012244 0.011532 0.010858 0.010219 0.009615 0.009043 0.008502 0.007990 0.007507 0.007050 0.006619 0.006211 0.005827 0.005464 0.005123 0.004800 0.004497 0.004211 0.003941 0.003688 0.003450 0.003225 0.003015 0.002817 0.002631 0.002456 0.002292 0.002138 0.001994 0.001859 0.001733 0.001614 0.001503 0.001399 0.001302 0.001211 0.001126 0.001046 0.000972 0.000903 0.000838 0.000778 0.000722 0.000669 0.000620 0.000575 0.000533 0.000493 0.000456 0.000422 0.000391 0.000361 0.000334 0.000308 0.000285 0.000263 0.000243 0.000224 0.000206 0.000190 0.000175
562.427190 559.027034 555.625847 552.223606 548.820289 545.415874 542.010340 538.603667 535.195834 531.786824 528.376616 524.965195 521.552544 518.138647 514.723490 511.307060 507.889345 504.470334 501.050018 497.628390 494.205443 490.781171 487.355573 483.928645 480.500388 477.070804 473.639896 470.207669 466.774131 463.339289 459.903155 456.465740 453.027060 449.587131 446.145970 442.703596 439.260033 435.815303 432.369431 428.922443 425.474369 422.025239 418.575084 415.123937 411.671833 408.218808 404.764899 401.310145 397.854585 394.398260 390.941212 387.483483 384.025117 380.566157 377.106649 373.646638 370.186169 366.725289 363.264043 359.802478 356.340640 352.878577 349.416333 345.953956 342.491491 339.028983 335.566477 332.104019 328.641651 325.179416 321.717358 318.255518 314.793936 311.332653 307.871707 304.411136 300.950978 297.491267 294.032040 290.573328 287.115166 283.657583 280.200610 276.744277 273.288609 269.833635 266.379378 262.925864 259.473114 256.021151 252.569993 249.119662 245.670173 242.221545 238.773793 235.326930 231.880971 228.435928 224.991811 221.548632 218.106398 214.665118 211.224800 207.785448 204.347070 200.909668 197.473247 194.037808 190.603355 187.169888 183.737408 180.305914 176.875405 173.445880 170.017336 166.589771 163.163181 159.737561 156.312908 152.889217 149.466482 146.044696 142.623855 139.203951 135.784976 132.366924 128.949787 125.533557 122.118224 118.703781 115.290219 111.877528 108.465699 105.054723 101.644589 98.235289 94.826810 91.419145 88.012281 84.606209 81.200917 77.796396 74.392634 70.989621 67.601464 64.308764 61.121702 58.037367 55.053040 52.166185 49.374425 46.675536 44.067433 41.548160 39.115878 36.768862 34.505487 32.324227 30.223644 28.202385 26.259175 24.392815 22.602175 20.886192 19.243863 17.674248 16.176459 14.749665 13.393085 12.105984 10.887677 9.737523 8.654920 7.639313 6.690181 5.807046 4.989464 4.237027 3.549365 2.926138 2.367042 1.871803 1.440183 1.071970 0.766986 0.525083 0.346143 0.230078 0.176828 0.167679 0.160411 0.153411 0.146671 0.140183 0.133939 0.127933 0.122158 0.116606 0.111271 0.106145 0.101223 0.096498 0.091963 0.087613 0.083441 0.079442 0.075609 0.071937 0.068420 0.065054 0.061832 0.058750 0.055803 0.052986 0.050294 0.047722 0.045266 0.042922 0.040685 0.038551 0.036517 0.034578 0.032730 0.030971 0.029295 0.027701 0.026184 0.024741 0.023370 0.022067 0.020829 0.019654 0.018538 0.017479 0.016475 0.015523 0.014621 0.013766 0.012956 0.012190 0.011465 0.010779 0.010131 0.009518 0.008938 0.008391 0.007875 0.007388 0.006928 0.006495 0.006086 0.005701 0.005338 0.004997 0.004676 0.004373 0.004089 0.003822 0.003571 0.003335 0.003114 0.002906 0.002711 0.002528 0.002357 0.002197 0.002046 0.001905 0.001774 0.001650 0.001535 0.001427 0.001327 0.001233 0.001145 0.001063 0.000986 0.000915 0.000849 0.000787 0.000729 0.000675 0.000625 0.000579 0.000535 0.000495 0.000458 0.000423 0.000391 0.000361 0.000333 0.000308 0.000284 0.000262 0.000241 0.000222
564.966488 561.558791 558.149787 554.739447 551.327743 547.914648 544.500135 541.084181 537.666759 534.247847 530.827422 527.405463 523.981949 520.556862 517.130185 513.701903 510.271999 506.840464 503.407284 499.972453 496.535961 493.097805 489.657981 486.216489 482.773328 479.328504 475.882020 472.433885 468.984108 465.532702 462.079682 458.625065 455.168869 451.711116 448.251831 444.791039 441.328768 437.865049 434.399916 430.933402 427.465545 423.996383 420.525959 417.054313 413.581491 410.107539 406.632505 403.156437 399.679387 396.201406 392.722547 389.242864 385.762413 382.281249 378.799428 375.317008 371.834047 368.350601 364.866730 361.382492 357.897944 354.413146 350.928154 347.443027 343.957821 340.472593 336.987400 333.502296 330.017336 326.532573 323.048060 319.563849 316.079990 312.596532 309.113523 305.631011 302.149039 298.667654 295.186896 291.706808 288.227428 284.748796 281.270948 277.793920 274.317744 270.842453 267.368077 263.894646 260.422188 256.950727 253.480289 250.010897 246.542571 243.075333 239.609201 236.144192 232.680322 229.217605 225.756054 222.295682 218.836499 215.378514 211.921736 208.466172 205.011827 201.558706 198.106814 194.656153 191.206724 187.758530 184.311568 180.865840 177.421343 173.978074 170.536030 167.095208 163.655602 160.217207 156.780017 153.344026 149.909227 146.475611 143.043170 139.611896 136.181781 132.752813 129.324983 125.898282 122.472697 119.048219 115.624835 112.202535 108.781307 105.361137 101.942015 98.523927 95.106861 91.690804 88.275743 84.861664 81.448555 78.036401 74.625190 71.214908 67.819660 64.520044 61.326238 58.235327 55.244592 52.351492 49.553648 46.848834 44.234962 41.710071 39.272323 36.919988 34.651438 32.465146 30.359670 28.333654 26.385822 24.514971 22.719969 20.999749 19.353308 17.779702 16.278041 14.847490 13.487266 12.196634 10.974904 9.821432 8.735616 7.716897 6.764752 5.878701 5.058297 4.303132 3.612830 2.987051 2.425489 1.927868 1.493946 1.123511 0.816382 0.572409 0.391473 0.273481 0.218375 0.207436 0.198445 0.189784 0.181445 0.173418 0.165694 0.158263 0.151118 0.144250 0.137649 0.131308 0.125219 0.119373 0.113763 0.108382 0.103220 0.098273 0.093531 0.088988 0.084638 0.080474 0.076488 0.072676 0.069030 0.065545 0.062214 0.059033 0.055995 0.053095 0.050328 0.047688 0.045172 0.042773 0.040488 0.038311 0.036239 0.034266 0.032390 0.030605 0.028909 0.027297 0.025765 0.024311 0.022931 0.021622 0.020379 0.019202 0.018086 0.017028 0.016027 0.015079 0.014182 0.013334 0.012531 0.011773 0.011057 0.010380 0.009741 0.009138 0.008570 0.008034 0.007528 0.007052 0.006603 0.006181 0.005784 0.005410 0.005058 0.004728 0.004417 0.004126 0.003852 0.003595 0.003354 0.003128 0.002916 0.002717 0.002531 0.002357 0.002194 0.002042 0.001899 0.001766 0.001641 0.001525 0.001416 0.001315 0.001220 0.001132 0.001050 0.000973 0.000902 0.000835 0.000773 0.000716 0.000662 0.000613 0.000566 0.000523 0.000484 0.000447 0.000412 0.000381 0.000351 0.000324 0.000298 0.000275
567.860831 564.444189 561.025915 557.605973 554.184330 550.760952 547.335808 543.908867 540.480099 537.049476 533.616971 530.182559 526.746215 523.307917 519.867646 516.425383 512.981111 509.534816 506.086487 502.636114 499.183689 495.729208 492.272668 488.814070 485.353416 481.890713 478.425970 474.959196 471.490407 468.019620 464.546854 461.072132 457.595481 454.116927 450.636504 447.154244 443.670185 440.184366 436.696830 433.207622 429.716788 426.224378 422.730444 419.235041 415.738225 412.240055 408.740589 405.239890 401.738023 398.235051 394.731041 391.226060 387.720177 384.213462 380.705984 377.197815 373.689026 370.179687 366.669872 363.159652 359.649098 356.138282 352.627275 349.116148 345.604970 342.093811 338.582739 335.071821 331.561124 328.050712 324.540650 321.031000 317.521823 314.013179 310.505125 306.997718 303.491013 299.985063 296.479918 292.975629 289.472242 285.969804 282.468359 278.967948 275.468611 271.970387 268.473311 264.977419 261.482743 257.989314 254.497159 251.006307 247.516782 244.028608 240.541807 237.056398 233.572401 230.089830 226.608703 223.129031 219.650828 216.174103 212.698866 209.225124 205.752885 202.282152 198.812930 195.345221 191.879027 188.414348 184.951183 181.489531 178.029389 174.570752 171.113617 167.657978 164.203828 160.751161 157.299968 153.850242 150.401972 146.955150 143.509763 140.065803 136.623256 133.182112 129.742357 126.303978 122.866963 119.431297 115.996966 112.563957 109.132253 105.701841 102.272705 98.844829 95.418198 91.992796 88.568606 85.145613 81.723800 78.303151 74.883649 71.465277 68.062138 64.754825 61.553515 58.455289 55.457425 52.557379 49.752769 47.041365 44.421076 41.889939 39.446113 37.087863 34.813561 32.621673 30.510757 28.479454 26.526484 24.650642 22.850792 21.125865 19.474854 17.896812 16.390848 14.956123 13.591851 12.297295 11.071761 9.914604 8.825219 7.803042 6.847552 5.958261 5.134723 4.376526 3.683293 3.054680 2.490379 1.990112 1.553634 1.180731 0.871221 0.624949 0.441795 0.321666 0.264498 0.251572 0.240666 0.230162 0.220047 0.210312 0.200943 0.191932 0.183266 0.174935 0.166930 0.159240 0.151855 0.144765 0.137961 0.131435 0.125175 0.119175 0.113424 0.107915 0.102640 0.097589 0.092756 0.088132 0.083711 0.079484 0.075445 0.071587 0.067903 0.064386 0.061031 0.057830 0.054778 0.051869 0.049098 0.046458 0.043945 0.041553 0.039277 0.037113 0.035056 0.033101 0.031244 0.029481 0.027807 0.026219 0.024713 0.023285 0.021931 0.020649 0.019435 0.018285 0.017198 0.016169 0.015196 0.014276 0.013408 0.012587 0.011813 0.011082 0.010392 0.009742 0.009129 0.008551 0.008008 0.007495 0.007014 0.006560 0.006134 0.005733 0.005357 0.005003 0.004671 0.004359 0.004067 0.003793 0.003536 0.003295 0.003069 0.002858 0.002661 0.002476 0.002303 0.002141 0.001990 0.001849 0.001717 0.001594 0.001480 0.001373 0.001273 0.001180 0.001093 0.001013 0.000938 0.000868 0.000803 0.000743 0.000687 0.000635 0.000586 0.000542 0.000500 0.000461 0.000426 0.000392 0.000362 0.000333
571.147734 567.720434 564.291118 560.859744 557.426273 553.990665 550.552881 547.112884 543.670641 540.226116 536.779279 533.330100 529.878551 526.424606 522.968243 519.509441 516.048182 512.584451 509.118235 505.649524 502.178311 498.704594 495.228372 491.749647 488.268426 484.784719 481.298538 477.809900 474.318825 470.825337 467.329462 463.831232 460.330679 456.827842 453.322761 449.815481 446.306049 442.794516 439.280936 435.765366 432.247866 428.728499 425.207330 421.684428 418.159862 414.633706 411.106035 407.576925 404.046455 400.514706 396.981759 393.447698 389.912607 386.376571 382.839676 379.302009 375.763656 372.224704 368.685242 365.145355 361.605131 358.064657 354.524017 350.983297 347.442582 343.901953 340.361494 336.821285 333.281405 329.741932 326.202941 322.664508 319.126705 315.589602 312.053269 308.517772 304.983175 301.449541 297.916930 294.385401 290.855008 287.325807 283.797847 280.271179 276.745847 273.221898 269.699373 266.178312 262.658752 259.140729 255.624276 252.109424 248.596201 245.084635 241.574749 238.066566 234.560108 231.055392 227.552435 224.051253 220.551858 217.054261 213.558473 210.064501 206.572352 203.082030 199.593540 196.106883 192.622060 189.139069 185.657911 182.178580 178.701073 175.225385 171.751509 168.279438 164.809163 161.340675 157.873964 154.409019 150.945828 147.484379 144.024659 140.566653 137.110348 133.655729 130.202779 126.751484 123.301825 119.853788 116.407354 112.962505 109.519224 106.077492 102.637290 99.198601 95.761403 92.325679 88.891409 85.458572 82.027150 78.597122 75.168467 71.741166 68.329318 65.013513 61.803923 58.697627 55.691898 52.784189 49.972116 47.253444 44.626079 42.088055 39.637526 37.272756 34.992111 32.794056 30.677144 28.640014 26.681381 24.800038 22.994845 21.264730 19.608684 18.025755 16.515050 15.075726 13.706996 12.408116 11.178393 10.017177 8.923859 7.897876 6.938699 6.045841 5.218852 4.457316 3.760855 3.129122 2.561805 2.058624 1.619332 1.243712 0.931579 0.682777 0.497181 0.374698 0.315260 0.300147 0.287134 0.274600 0.262531 0.250915 0.239736 0.228984 0.218644 0.208705 0.199153 0.189978 0.181167 0.172708 0.164591 0.156803 0.149335 0.142176 0.135315 0.128743 0.122449 0.116423 0.110657 0.105141 0.099866 0.094824 0.090005 0.085402 0.081007 0.076811 0.072808 0.068990 0.065349 0.061878 0.058572 0.055423 0.052425 0.049571 0.046856 0.044275 0.041821 0.039488 0.037273 0.035170 0.033173 0.031278 0.029481 0.027778 0.026163 0.024633 0.023185 0.021814 0.020516 0.019289 0.018128 0.017031 0.015995 0.015016 0.014092 0.013220 0.012397 0.011621 0.010890 0.010201 0.009553 0.008942 0.008367 0.007826 0.007317 0.006839 0.006390 0.005968 0.005572 0.005200 0.004852 0.004525 0.004218 0.003931 0.003662 0.003410 0.003174 0.002953 0.002747 0.002554 0.002374 0.002206 0.002049 0.001902 0.001765 0.001637 0.001518 0.001408 0.001304 0.001208 0.001119 0.001036 0.000958 0.000886 0.000819 0.000757 0.000700 0.000646 0.000596 0.000550 0.000508 0.000468 0.000432 0.000398
574.876536 571.436418 567.993832 564.548728 561.101058 557.650775 554.197836 550.742196 547.283816 543.822656 540.358680 536.891855 533.422149 529.949535 526.473986 522.995480 519.513999 516.029527 512.542053 509.051566 505.558064 502.061545 498.562012 495.059473 491.553938 488.045424 484.533950 481.019539 477.502220 473.982025 470.458991 466.933158 463.404572 459.873281 456.339339 452.802803 449.263735 445.722198 442.178262 438.631999 435.083484 431.532796 427.980017 424.425232 420.868528 417.309996 413.749728 410.187819 406.624365 403.059465 399.493218 395.925727 392.357093 388.787420 385.216812 381.645373 378.073208 374.500422 370.927119 367.353403 363.779379 360.205149 356.630816 353.056480 349.482241 345.908198 342.334447 338.761084 335.188201 331.615890 328.044240 324.473339 320.903271 317.334118 313.765960 310.198876 306.632939 303.068223 299.504796 295.942726 292.382077 288.822910 285.265285 281.709257 278.154879 274.602202 271.051274 267.502140 263.954842 260.409421 256.865912 253.324351 249.784769 246.247198 242.711662 239.178188 235.646797 232.117510 228.590345 225.065317 221.542440 218.021727 214.503186 210.986825 207.472651 203.960668 200.450879 196.943283 193.437881 189.934671 186.433648 182.934809 179.438146 175.943652 172.451319 168.961136 165.473092 161.987176 158.503374 155.021673 151.542057 148.064512 144.589021 141.115566 137.644130 134.174695 130.707240 127.241748 123.778197 120.316568 116.856838 113.398988 109.942993 106.488834 103.036487 99.585928 96.137137 92.690088 89.244758 85.801125 82.359163 78.918850 75.480161 72.043071 68.621676 65.296563 62.077899 58.962760 55.948414 53.032311 50.212062 47.485429 44.850314 42.304748 39.846879 37.474969 35.187380 32.982574 30.859098 28.815588 26.850758 24.963394 23.152354 21.416562 19.755006 18.166730 16.650837 15.206483 13.832874 12.529265 11.294960 10.129303 9.031685 8.001537 7.038329 6.141570 5.310806 4.545620 3.845629 3.210483 2.639869 2.133503 1.691134 1.312543 0.997543 0.745974 0.557710 0.432652 0.370734 0.353230 0.337913 0.323161 0.308956 0.295284 0.282128 0.269472 0.257303 0.245605 0.234364 0.223565 0.213195 0.203241 0.193687 0.184523 0.175734 0.167309 0.159235 0.151500 0.144093 0.137002 0.130216 0.123725 0.117517 0.111583 0.105913 0.100496 0.095324 0.090387 0.085676 0.081182 0.076898 0.072814 0.068923 0.065217 0.061689 0.058331 0.055137 0.052099 0.049211 0.046467 0.043860 0.041384 0.039035 0.036806 0.034691 0.032686 0.030786 0.028986 0.027282 0.025668 0.024141 0.022697 0.021331 0.020041 0.018821 0.017669 0.016582 0.015556 0.014588 0.013675 0.012815 0.012004 0.011241 0.010522 0.009845 0.009209 0.008610 0.008048 0.007519 0.007023 0.006557 0.006119 0.005709 0.005324 0.004963 0.004625 0.004309 0.004012 0.003735 0.003475 0.003232 0.003005 0.002793 0.002595 0.002410 0.002238 0.002077 0.001927 0.001787 0.001656 0.001535 0.001422 0.001317 0.001219 0.001128 0.001043 0.000964 0.000891 0.000823 0.000760 0.000702 0.000648 0.000597 0.000551 0.000508 0.000468
579.113835 575.658074 572.199304 568.737467 565.272507 561.804370 558.333005 554.858363 551.380398 547.899066 544.414327 540.926144 537.434482 533.939313 530.440609 526.938349 523.432513 519.923089 516.410065 512.893438 509.373207 505.849377 502.321956 498.790958 495.256404 491.718316 488.176725 484.631665 481.083174 477.531299 473.976088 470.417596 466.855883 463.291013 459.723055 456.152084 452.578177 449.001417 445.421891 441.839691 438.254910 434.667648 431.078006 427.486089 423.892006 420.295867 416.697786 413.097879 409.496263 405.893057 402.288382 398.682362 395.075119 391.466776 387.857459 384.247292 380.636401 377.024908 373.412939 369.800616 366.188062 362.575399 358.962745 355.350220 351.737939 348.126018 344.514570 340.903704 337.293529 333.684150 330.075670 326.468189 322.861806 319.256614 315.652705 312.050167 308.449085 304.849543 301.251618 297.655387 294.060922 290.468292 286.877564 283.288799 279.702058 276.117397 272.534868 268.954522 265.376405 261.800561 258.227031 254.655852 251.087059 247.520683 243.956755 240.395300 236.836341 233.279900 229.725995 226.174643 222.625856 219.079647 215.536024 211.994994 208.456562 204.920732 201.387503 197.856875 194.328846 190.803411 187.280563 183.760297 180.242601 176.727467 173.214882 169.704833 166.197306 162.692286 159.189755 155.689697 152.192094 148.696924 145.204169 141.713807 138.225817 134.740176 131.256860 127.775846 124.297110 120.820627 117.346371 113.874317 110.404438 106.936708 103.471100 100.007586 96.546140 93.086734 89.629339 86.173927 82.720471 79.268942 75.819311 72.371550 68.939748 65.604490 62.375937 59.251161 56.227427 53.302179 50.473024 47.737721 45.094166 42.540386 40.074526 37.694842 35.399694 33.187537 31.056918 29.006465 27.034889 25.140973 23.323572 21.581604 19.914052 18.319960 16.798424 15.348597 13.969682 12.660930 11.421640 10.251155 9.148861 8.114185 7.146593 6.245593 5.410725 4.641570 3.937741 3.298886 2.724687 2.214858 1.769145 1.387326 1.069209 0.814633 0.623469 0.495615 0.431000 0.410898 0.393078 0.375915 0.359389 0.343483 0.328177 0.313455 0.299298 0.285689 0.272612 0.260050 0.247986 0.236406 0.225293 0.214632 0.204408 0.194608 0.185216 0.176218 0.167602 0.159354 0.151460 0.143910 0.136689 0.129787 0.123191 0.116890 0.110874 0.105131 0.099652 0.094425 0.089441 0.084691 0.080165 0.075855 0.071751 0.067846 0.064130 0.060597 0.057238 0.054046 0.051014 0.048134 0.045402 0.042809 0.040349 0.038017 0.035808 0.033714 0.031731 0.029855 0.028079 0.026399 0.024810 0.023309 0.021891 0.020551 0.019286 0.018093 0.016967 0.015905 0.014905 0.013962 0.013074 0.012238 0.011451 0.010711 0.010015 0.009360 0.008746 0.008168 0.007626 0.007117 0.006640 0.006192 0.005773 0.005379 0.005011 0.004666 0.004344 0.004042 0.003759 0.003496 0.003249 0.003019 0.002804 0.002603 0.002416 0.002241 0.002078 0.001926 0.001785 0.001654 0.001531 0.001417 0.001311 0.001213 0.001121 0.001036 0.000958 0.000884 0.000816 0.000753 0.000695 0.000641 0.000591 0.000544
583.952769 580.477486 576.998537 573.515858 570.029385 566.539057 563.044816 559.546609 556.044385 552.538096 549.027699 545.513157 541.994434 538.471501 534.944333 531.412910 527.877217 524.337245 520.792991 517.244455 513.691646 510.134576 506.573266 503.007741 499.438032 495.864176 492.286217 488.704205 485.118196 481.528251 477.934438 474.336830 470.735507 467.130553 463.522059 459.910120 456.294836 452.676313 449.054661 445.429995 441.802432 438.172097 434.539115 430.903615 427.265732 423.625599 419.983356 416.339142 412.693100 409.045374 405.396109 401.745452 398.093548 394.440545 390.786591 387.131833 383.476418 379.820492 376.164199 372.507685 368.851091 365.194557 361.538223 357.882226 354.226699 350.571774 346.917581 343.264245 339.611890 335.960636 332.310599 328.661893 325.014628 321.368910 317.724843 314.082524 310.442050 306.803512 303.166998 299.532591 295.900372 292.270416 288.642798 285.017584 281.394840 277.774627 274.157003 270.542021 266.929731 263.320180 259.713411 256.109464 252.508375 248.910178 245.314901 241.722573 238.133216 234.546852 230.963498 227.383170 223.805881 220.231640 216.660455 213.092330 209.527270 205.965273 202.406339 198.850464 195.297642 191.747866 188.201126 184.657412 181.116710 177.579007 174.044286 170.512532 166.983724 163.457845 159.934872 156.414785 152.897559 149.383171 145.871597 142.362809 138.856783 135.353489 131.852901 128.354990 124.859726 121.367080 117.877021 114.389519 110.904542 107.422058 103.942036 100.464444 96.989249 93.516418 90.045918 86.577717 83.111780 79.648075 76.186568 72.727225 69.284132 65.937867 62.698588 59.563360 56.529445 53.594280 50.755470 48.010767 45.358063 42.795381 40.320861 37.932754 35.629415 33.409295 31.270937 29.212964 27.234083 25.333072 23.508780 21.760124 20.086082 18.485692 16.958048 15.502297 14.117638 12.803320 11.558636 10.382925 9.275570 8.235994 7.263660 6.358070 5.518763 4.745314 4.037333 3.394466 2.816389 2.302814 1.853484 1.468173 1.146685 0.888858 0.694556 0.563677 0.496147 0.473235 0.452709 0.432939 0.413904 0.395582 0.377952 0.360995 0.344689 0.329014 0.313952 0.299484 0.285590 0.272252 0.259453 0.247174 0.235400 0.224112 0.213295 0.202933 0.193010 0.183511 0.174420 0.165724 0.157409 0.149460 0.141864 0.134608 0.127679 0.121066 0.114755 0.108736 0.102997 0.097527 0.092315 0.087351 0.082625 0.078128 0.073849 0.069780 0.065912 0.062236 0.058744 0.055429 0.052282 0.049296 0.046464 0.043778 0.041234 0.038823 0.036540 0.034379 0.032333 0.030399 0.028570 0.026841 0.025208 0.023665 0.022209 0.020834 0.019538 0.018315 0.017163 0.016077 0.015055 0.014092 0.013186 0.012334 0.011532 0.010779 0.010071 0.009406 0.008781 0.008196 0.007646 0.007130 0.006647 0.006195 0.005771 0.005373 0.005002 0.004654 0.004329 0.004025 0.003741 0.003476 0.003228 0.002997 0.002782 0.002581 0.002393 0.002218 0.002056 0.001904 0.001763 0.001632 0.001510 0.001397 0.001291 0.001193 0.001103 0.001018 0.000940 0.000867 0.000800 0.000738 0.000680 0.000627
589.530135 586.029654 582.524699 579.015196 575.501077 571.982275 568.458729 564.930381 561.397179 557.859076 554.316029 550.768001 547.214962 543.656887 540.093756 536.525558 532.952287 529.373944 525.790535 522.202077 518.608591 515.010105 511.406656 507.798288 504.185050 500.567002 496.944207 493.316737 489.684673 486.048099 482.407110 478.761803 475.112285 471.458669 467.801071 464.139616 460.474433 456.805656 453.133425 449.457884 445.779182 442.097469 438.412904 434.725644 431.035851 427.343692 423.649333 419.952942 416.254691 412.554750 408.853293 405.150493 401.446522 397.741554 394.035761 390.329315 386.622386 382.915144 379.207756 375.500386 371.793200 368.086356 364.380013 360.674327 356.969450 353.265529 349.562710 345.861135 342.160941 338.462262 334.765229 331.069967 327.376596 323.685236 319.995997 316.308990 312.624317 308.942079 305.262371 301.585283 297.910902 294.239308 290.570581 286.904793 283.242011 279.582302 275.925725 272.272336 268.622188 264.975327 261.331799 257.691643 254.054896 250.421591 246.791757 243.165420 239.542602 235.923323 232.307598 228.695441 225.086862 221.481868 217.880463 214.282649 210.688426 207.097790 203.510736 199.927256 196.347340 192.770977 189.198153 185.628852 182.063056 178.500747 174.941903 171.386503 167.834524 164.285939 160.740724 157.198850 153.660290 150.125013 146.592990 143.064188 139.538576 136.016121 132.496789 128.980545 125.467355 121.957183 118.449993 114.945748 111.444411 107.945946 104.450314 100.957478 97.467398 93.980038 90.495358 87.013319 83.533882 80.057009 76.582661 73.110797 69.655499 66.297338 63.046467 59.899947 56.855033 53.909158 51.059920 48.305066 45.642485 43.070193 40.586324 38.189126 35.876948 33.648237 31.501528 29.435442 27.448680 25.540015 23.708294 21.952425 20.271384 18.664203 17.129972 15.667835 14.276985 12.956666 11.706168 10.524825 9.412016 8.367160 7.389715 6.479180 5.635089 4.857014 4.144561 3.497370 2.915117 2.397508 1.944281 1.555208 1.230091 0.968761 0.771081 0.636945 0.566275 0.540337 0.516896 0.494319 0.472582 0.451659 0.431528 0.412164 0.393544 0.375646 0.358447 0.341926 0.326061 0.310832 0.296217 0.282198 0.268753 0.255865 0.243515 0.231684 0.220354 0.209508 0.199129 0.189201 0.179706 0.170631 0.161958 0.153674 0.145764 0.138214 0.131009 0.124137 0.117585 0.111340 0.105389 0.099723 0.094327 0.089192 0.084308 0.079662 0.075246 0.071050 0.067063 0.063278 0.059685 0.056276 0.053043 0.049978 0.047073 0.044320 0.041714 0.039247 0.036912 0.034703 0.032615 0.030642 0.028777 0.027016 0.025353 0.023784 0.022304 0.020909 0.019593 0.018354 0.017186 0.016087 0.015053 0.014080 0.013165 0.012305 0.011497 0.010738 0.010025 0.009356 0.008729 0.008140 0.007589 0.007072 0.006588 0.006134 0.005710 0.005313 0.004942 0.004595 0.004271 0.003968 0.003685 0.003422 0.003175 0.002946 0.002732 0.002532 0.002347 0.002174 0.002013 0.001863 0.001724 0.001594 0.001474 0.001362 0.001259 0.001162 0.001073 0.000990 0.000913 0.000842 0.000776 0.000715
596.061361 592.526625 588.986392 585.440584 581.889131 578.331967 574.769030 571.200268 567.625631 564.045081 560.458583 556.866110 553.267643 549.663173 546.052694 542.436212 538.813741 535.185301 531.550923 527.910644 524.264513 520.612584 516.954922 513.291599 509.622697 505.948303 502.268517 498.583443 494.893195 491.197894 487.497667 483.792650 480.082986 476.368823 472.650316 468.927626 465.200919 461.470366 457.736144 453.998433 450.257417 446.513286 442.766230 439.016443 435.264122 431.509465 427.752672 423.993944 420.233483 416.471492 412.708171 408.943724 405.178350 401.412250 397.645622 393.878663 390.111567 386.344525 382.577728 378.811362 375.045609 371.280651 367.516661 363.753813 359.992275 356.232211 352.473779 348.717135 344.962428 341.209805 337.459406 333.711366 329.965816 326.222881 322.482682 318.745334 315.010947 311.279627 307.551472 303.826578 300.105035 296.386927 292.672334 288.961330 285.253986 281.550367 277.850533 274.154540 270.462440 266.774279 263.090100 259.409941 255.733837 252.061818 248.393910 244.730136 241.070515 237.415063 233.763791 230.116709 226.473821 222.835131 219.200638 215.570339 211.944227 208.322295 204.704532 201.090923 197.481454 193.876106 190.274860 186.677694 183.084584 179.495505 175.910430 172.329330 168.752176 165.178935 161.609576 158.044064 154.482364 150.924439 147.370254 143.819769 140.272947 136.729746 133.190127 129.654048 126.121469 122.592346 119.066638 115.544300 112.025289 108.509562 104.997074 101.487781 97.981637 94.478599 90.978620 87.481657 83.987663 80.496593 77.008402 73.523045 70.054595 66.683619 63.420263 60.261581 57.204824 54.247418 51.386955 48.621177 45.947966 43.365333 40.871407 38.464430 36.142744 33.904792 31.749104 29.674295 27.679061 25.762169 23.922460 22.158840 20.470277 18.855800 17.314492 15.845493 14.447992 13.121227 11.864484 10.677092 9.558426 8.507899 7.524966 6.609121 5.759894 4.976852 4.259597 3.607766 3.021029 2.499089 2.041680 1.648570 1.319557 1.054468 0.853163 0.715532 0.641492 0.612308 0.585740 0.560152 0.535515 0.511802 0.488986 0.467041 0.445939 0.425655 0.406164 0.387441 0.369462 0.352204 0.335642 0.319755 0.304520 0.289916 0.275920 0.262514 0.249675 0.237385 0.225624 0.214374 0.203616 0.193332 0.183505 0.174119 0.165156 0.156600 0.148437 0.140650 0.133226 0.126150 0.119408 0.112987 0.106874 0.101056 0.095521 0.090258 0.085254 0.080499 0.075983 0.071694 0.067623 0.063761 0.060098 0.056625 0.053333 0.050215 0.047262 0.044466 0.041821 0.039319 0.036953 0.034717 0.032604 0.030609 0.028725 0.026947 0.025270 0.023689 0.022199 0.020794 0.019472 0.018227 0.017055 0.015952 0.014916 0.013941 0.013025 0.012165 0.011358 0.010600 0.009889 0.009223 0.008598 0.008012 0.007464 0.006950 0.006469 0.006020 0.005599 0.005206 0.004839 0.004496 0.004176 0.003877 0.003598 0.003338 0.003095 0.002869 0.002659 0.002463 0.002281 0.002111 0.001953 0.001806 0.001670 0.001544 0.001426 0.001317 0.001216 0.001122 0.001035 0.000954 0.000880 0.000811
603.923464 600.337983 596.745678 593.146483 589.540338 585.927191 582.306998 578.679726 575.045347 571.403847 567.755217 564.099461 560.436590 556.766626 553.089601 549.405558 545.714548 542.016634 538.311887 534.600390 530.882235 527.157522 523.426363 519.688879 515.945199 512.195460 508.439810 504.678404 500.911404 497.138981 493.361313 489.578584 485.790984 481.998712 478.201968 474.400960 470.595902 466.787008 462.974499 459.158598 455.339532 451.517529 447.692820 443.865636 440.036212 436.204780 432.371575 428.536830 424.700777 420.863650 417.025679 413.187092 409.348116 405.508974 401.669890 397.831079 393.992758 390.155138 386.318425 382.482822 378.648529 374.815738 370.984640 367.155418 363.328252 359.503315 355.680776 351.860798 348.043537 344.229147 340.417772 336.609553 332.804624 329.003115 325.205148 321.410839 317.620301 313.833639 310.050953 306.272336 302.497877 298.727660 294.961762 291.200255 287.443206 283.690676 279.942723 276.199399 272.460749 268.726817 264.997639 261.273249 257.553676 253.838943 250.129072 246.424077 242.723973 239.028768 235.338466 231.653070 227.972578 224.296985 220.626284 216.960464 213.299511 209.643409 205.992139 202.345681 198.704009 195.067100 191.434924 187.807453 184.184654 180.566494 176.952938 173.343950 169.739490 166.139520 162.543999 158.952884 155.366133 151.783702 148.205545 144.631615 141.061867 137.496253 133.934725 130.377232 126.823727 123.274159 119.728478 116.186632 112.648571 109.114243 105.583597 102.056580 98.533140 95.013226 91.496785 87.983765 84.474112 80.967776 77.464703 73.964841 70.482257 67.097510 63.820741 60.648998 57.579522 54.609735 51.737222 48.959718 46.275100 43.681371 41.176655 38.759187 36.427304 34.179442 32.014126 29.929965 27.925647 25.999937 24.151668 22.379741 20.683118 19.060822 17.511933 16.035583 14.630957 13.297288 12.033857 10.839987 9.715049 8.658450 7.669642 6.748112 5.893387 5.105029 4.382634 3.725837 3.134301 2.607726 2.145842 1.748412 1.415230 1.146120 0.940936 0.799565 0.721921 0.689265 0.659351 0.630541 0.602803 0.576106 0.550419 0.525712 0.501956 0.479120 0.457178 0.436101 0.415861 0.396433 0.377790 0.359906 0.342756 0.326316 0.310562 0.295471 0.281019 0.267185 0.253947 0.241283 0.229174 0.217599 0.206538 0.195972 0.185884 0.176254 0.167065 0.158301 0.149945 0.141981 0.134392 0.127165 0.120285 0.113737 0.107507 0.101583 0.095951 0.090600 0.085516 0.080690 0.076108 0.071761 0.067638 0.063729 0.060024 0.056515 0.053191 0.050045 0.047068 0.044251 0.041589 0.039072 0.036694 0.034449 0.032329 0.030328 0.028441 0.026661 0.024984 0.023403 0.021915 0.020513 0.019194 0.017953 0.016787 0.015690 0.014659 0.013692 0.012783 0.011930 0.011130 0.010379 0.009676 0.009017 0.008400 0.007822 0.007281 0.006775 0.006302 0.005859 0.005446 0.005060 0.004699 0.004363 0.004049 0.003756 0.003483 0.003229 0.002992 0.002772 0.002567 0.002376 0.002198 0.002033 0.001880 0.001737 0.001605 0.001482 0.001368 0.001263 0.001165 0.001074 0.000990 0.000912
613.905225 610.231226 606.548769 602.857839 599.158433 595.450561 591.734240 588.009503 584.276392 580.534960 576.785272 573.027404 569.261444 565.487489 561.705648 557.916042 554.118799 550.314059 546.501972 542.682697 538.856402 535.023263 531.183466 527.337205 523.484680 519.626098 515.761675 511.891633 508.016197 504.135601 500.250081 496.359880 492.465244 488.566423 484.663669 480.757238 476.847388 472.934379 469.018472 465.099928 461.179011 457.255984 453.331108 449.404645 445.476856 441.548001 437.618336 433.688118 429.757598 425.827026 421.896650 417.966712 414.037452 410.109105 406.181904 402.256074 398.331837 394.409412 390.489009 386.570835 382.655092 378.741976 374.831675 370.924375 367.020252 363.119480 359.222224 355.328643 351.438891 347.553116 343.671458 339.794052 335.921026 332.052502 328.188596 324.329418 320.475072 316.625654 312.781256 308.941964 305.107857 301.279009 297.455489 293.637358 289.824674 286.017489 282.215849 278.419795 274.629365 270.844590 267.065497 263.292108 259.524441 255.762511 252.006325 248.255891 244.511209 240.772277 237.039091 233.311640 229.589912 225.873891 222.163560 218.458896 214.759874 211.066469 207.378650 203.696386 200.019642 196.348383 192.682569 189.022160 185.367115 181.717389 178.072938 174.433714 170.799669 167.170753 163.546917 159.928106 156.314270 152.705354 149.101302 145.502061 141.907572 138.317779 134.732625 131.152051 127.575999 124.004410 120.437225 116.874383 113.315825 109.761490 106.211319 102.665251 99.123226 95.585182 92.051060 88.520799 84.994338 81.471618 77.952578 74.437158 70.939416 67.539906 64.248759 61.063016 57.979912 54.996861 52.111441 49.321380 46.624547 44.018940 41.502674 39.073978 36.731184 34.472720 32.297104 30.202939 28.188908 26.253768 24.396346 22.615537 20.910298 19.279646 17.722654 16.238450 14.826211 13.485166 12.214589 11.013801 9.882163 8.819080 7.823997 6.896397 6.035800 5.241765 4.513884 3.851784 3.255126 2.723604 2.256944 1.854903 1.517272 1.243870 1.034547 0.889186 0.807696 0.771333 0.737850 0.705603 0.674557 0.644677 0.615927 0.588275 0.561686 0.536130 0.511573 0.487984 0.465334 0.443591 0.422727 0.402714 0.383522 0.365125 0.347495 0.330607 0.314436 0.298955 0.284142 0.269971 0.256421 0.243469 0.231092 0.219270 0.207981 0.197206 0.186924 0.177118 0.167768 0.158857 0.150366 0.142280 0.134581 0.127254 0.120284 0.113656 0.107355 0.101367 0.095679 0.090279 0.085152 0.080289 0.075675 0.071302 0.067157 0.063230 0.059512 0.055991 0.052660 0.049510 0.046530 0.043715 0.041054 0.038542 0.036170 0.033931 0.031820 0.029829 0.027952 0.026184 0.024518 0.022950 0.021475 0.020087 0.018781 0.017554 0.016401 0.015318 0.014302 0.013347 0.012452 0.011613 0.010826 0.010088 0.009398 0.008751 0.008146 0.007580 0.007050 0.006555 0.006093 0.005661 0.005258 0.004881 0.004530 0.004203 0.003897 0.003613 0.003348 0.003101 0.002872 0.002658 0.002459 0.002275 0.002103 0.001944 0.001796 0.001658 0.001531 0.001413 0.001303 0.001202 0.001108 0.001021
628.440099 624.528195 620.609441 616.683926 612.751745 608.812997 604.867790 600.916238 596.958460 592.994583 589.024737 585.049061 581.067700 577.080803 573.088525 569.091029 565.088481 561.081054 557.068926 553.052278 549.031299 545.006181 540.977122 536.944321 532.907986 528.868324 524.825549 520.779877 516.731526 512.680720 508.627683 504.572643 500.515827 496.457466 492.397794 488.337043 484.275447 480.213242 476.150661 472.087940 468.025312 463.963013 459.901274 455.840327 451.780402 447.721726 443.664527 439.609026 435.555446 431.504003 427.454913 423.408387 419.364633 415.323853 411.286248 407.252014 403.221340 399.194413 395.171414 391.152520 387.137901 383.127724 379.122150 375.121332 371.125422 367.134562 363.148890 359.168540 355.193637 351.224302 347.260651 343.302791 339.350826 335.404854 331.464965 327.531245 323.603774 319.682627 315.767871 311.859570 307.957781 304.062556 300.173942 296.291980 292.416707 288.548155 284.686349 280.831312 276.983061 273.141608 269.306961 265.479125 261.658099 257.843879 254.036456 250.235820 246.441954 242.654840 238.874455 235.100774 231.333768 227.573407 223.819655 220.072476 216.331830 212.597676 208.869969 205.148663 201.433709 197.725058 194.022657 190.326452 186.636387 182.952406 179.274450 175.602459 171.936373 168.276128 164.621664 160.972914 157.329814 153.692298 150.060301 146.433754 142.812590 139.196742 135.586140 131.980715 128.380398 124.785120 121.194810 117.609399 114.028817 110.452993 106.881858 103.315341 99.753373 96.195882 92.642800 89.094057 85.549583 82.009309 78.473165 74.941084 71.427116 68.011804 64.705271 61.504552 58.406871 55.409636 52.510416 49.706932 46.997045 44.378745 41.850140 39.409452 37.055004 34.785218 32.598606 30.493762 28.469363 26.524159 24.656971 22.866687 21.152257 19.512692 17.947058 16.454477 15.034121 13.685212 12.407018 11.198853 10.060075 8.990081 7.988311 7.054242 6.187391 5.387308 4.653582 3.985833 3.383719 2.846927 2.375180 1.968229 1.625860 1.347888 1.134158 0.984548 0.898964 0.858656 0.821373 0.785468 0.750900 0.717630 0.685621 0.654834 0.625232 0.596779 0.569439 0.543178 0.517962 0.493757 0.470531 0.448251 0.426886 0.406406 0.386781 0.367982 0.349981 0.332749 0.316259 0.300486 0.285403 0.270985 0.257208 0.244049 0.231484 0.219490 0.208047 0.197131 0.186724 0.176805 0.167355 0.158355 0.149786 0.141631 0.133873 0.126496 0.119482 0.112818 0.106488 0.100477 0.094771 0.089358 0.084224 0.079356 0.074743 0.070372 0.066233 0.062316 0.058608 0.055102 0.051786 0.048652 0.045691 0.042895 0.040255 0.037764 0.035414 0.033198 0.031109 0.029141 0.027287 0.025542 0.023900 0.022355 0.020902 0.019537 0.018253 0.017048 0.015917 0.014855 0.013858 0.012924 0.012048 0.011228 0.010459 0.009739 0.009066 0.008436 0.007847 0.007296 0.006781 0.006300 0.005851 0.005433 0.005042 0.004677 0.004337 0.004021 0.003726 0.003451 0.003196 0.002958 0.002737 0.002532 0.002341 0.002163 0.001998 0.001846 0.001704 0.001572 0.001450 0.001337 0.001233 0.001136
653.307137 649.979708 646.653786 643.329385 640.006517 636.685190 633.365409 630.047176 626.730488 623.415338 617.177881 609.492551 603.509172 598.044698 592.857466 587.847595 582.962516 578.170645 573.451321 568.790208 564.176911 559.603637 555.064389 550.554454 546.070061 541.608156 537.166230 532.742208 528.334354 523.941214 519.561555 515.194336 510.838668 506.493796 502.159074 497.833951 493.517959 489.210699 484.911832 480.621072 476.338180 472.062956 467.795237 463.534889 459.281807 455.035908 450.797133 446.565438 442.340798 438.123200 433.912646 429.709147 425.512722 421.323402 417.141220 412.966218 408.798442 404.637941 400.484768 396.338977 392.200625 388.069769 383.946467 379.830776 375.722752 371.622453 367.529933 363.445244 359.368437 355.299562 351.238663 347.185785 343.140967 339.104247 335.075659 331.055233 327.042996 323.038973 319.043183 315.055642 311.076364 307.105356 303.142625 299.188172 295.241995 291.304088 287.374442 283.453043 279.539876 275.634921 271.738154 267.849550 263.969077 260.096705 256.232397 252.376114 248.527815 244.687455 240.854988 237.030365 233.213532 229.404438 225.603024 221.809233 218.023005 214.244276 210.472982 206.709059 202.952438 199.203050 195.460825 191.725691 187.997576 184.276406 180.562104 176.854596 173.153804 169.459651 165.772058 162.090947 158.416237 154.747848 151.085699 147.429711 143.779801 140.135889 136.497891 132.865727 129.239315 125.618572 122.003417 118.393767 114.789541 111.190658 107.597035 104.008591 100.425246 96.846919 93.273528 89.704995 86.141238 82.582180 79.027740 75.477841 71.946523 68.514320 65.191346 61.974626 58.861377 55.848995 52.935043 50.117232 47.393414 44.761571 42.219805 39.766326 37.399453 35.117597 32.919262 30.803037 28.767590 26.811664 24.934073 23.133696 21.409478 19.760422 18.185587 16.684089 15.255093 13.897814 12.611514 11.395501 10.249125 9.171779 8.162896 7.221947 6.348442 5.541928 4.801986 4.128232 3.520316 2.977923 2.500767 2.088597 1.741192 1.458363 1.239949 1.085824 0.995888 0.951389 0.910069 0.870276 0.831966 0.795097 0.759624 0.725507 0.692703 0.661174 0.630879 0.601780 0.573838 0.547018 0.521282 0.496596 0.472923 0.450232 0.428488 0.407660 0.387715 0.368623 0.350354 0.332878 0.316168 0.300195 0.284932 0.270353 0.256432 0.243145 0.230467 0.218375 0.206846 0.195857 0.185388 0.175417 0.165925 0.156891 0.148297 0.140124 0.132355 0.124973 0.117960 0.111301 0.104981 0.098984 0.093297 0.087904 0.082794 0.077953 0.073368 0.069028 0.064921 0.061037 0.057364 0.053892 0.050613 0.047515 0.044591 0.041831 0.039228 0.036773 0.034460 0.032280 0.030226 0.028293 0.026474 0.024763 0.023154 0.021641 0.020219 0.018884 0.017631 0.016455 0.015351 0.014316 0.013346 0.012437 0.011586 0.010788 0.010042 0.009344 0.008692 0.008082 0.007511 0.006979 0.006482 0.006018 0.005585 0.005181 0.004805 0.004454 0.004127 0.003823 0.003540 0.003277 0.003032 0.002804 0.002593 0.002396 0.002214 0.002044 0.001887 0.001742 0.001607 0.001481 0.001366 0.001258
653.307137 649.979708 646.653786 643.329385 640.006517 636.685190 633.365409 630.047176 626.730488 623.415338 620.101717 616.789609 613.478994 610.169847 606.862137 603.555827 600.250875 596.947230 593.644837 590.343632 587.043544 583.744496 580.446399 577.149159 573.852671 570.556823 567.261492 557.531547 549.831998 543.404446 537.511577 531.931536 526.562048 521.346122 516.248259 511.244646 506.318442 501.457254 496.651678 491.894398 487.179609 482.502627 477.859621 473.247422 468.663377 464.105254 459.571153 455.059451 450.568753 446.097852 441.645701 437.211389 432.794117 428.393187 424.007981 419.637957 415.282636 410.941590 406.614442 402.300855 398.000529 393.713194 389.438610 385.176559 380.926845 376.689292 372.463738 368.250038 364.048056 359.857670 355.678764 351.511234 347.354980 343.209909 339.075933 334.952966 330.840930 326.739746 322.649339 318.569635 314.500561 310.442047 306.394022 302.356415 298.329155 294.312173 290.305397 286.308755 282.322175 278.345584 274.378908 270.422072 266.475000 262.537614 258.609835 254.691586 250.782783 246.883346 242.993192 239.112236 235.240393 231.377576 227.523698 223.678669 219.842402 216.014804 212.195786 208.385253 204.583115 200.789276 197.003643 193.226121 189.456614 185.695027 181.941262 178.195224 174.456815 170.725938 167.002495 163.286390 159.577523 155.875797 152.181115 148.493379 144.812490 141.138352 137.470868 133.809939 130.155469 126.507362 122.865521 119.229850 115.600255 111.976639 108.358908 104.746967 101.140725 97.540086 93.944959 90.355251 86.770871 83.191729 79.617733 76.048796 72.498945 69.048706 65.708182 62.474385 59.344525 56.315987 53.386324 50.553238 47.814572 45.168298 42.612508 40.145405 37.765298 35.470590 33.259777 31.131439 29.084235 27.116900 25.228241 23.417129 21.682501 20.023352 18.438736 16.927758 15.489578 14.123404 12.828490 11.604138 10.449690 9.364534 8.348096 7.399840 6.519270 5.705926 4.959384 4.279254 3.665180 3.116840 2.633945 2.216235 1.863486 1.575502 1.352119 1.193203 1.098651 1.049704 1.004101 0.960184 0.917906 0.877218 0.838072 0.800423 0.764224 0.729432 0.696003 0.663894 0.633063 0.603470 0.575073 0.547835 0.521717 0.496681 0.472691 0.449711 0.427706 0.406642 0.386486 0.367207 0.348771 0.331149 0.314311 0.298228 0.282871 0.268213 0.254227 0.240887 0.228168 0.216046 0.204497 0.193498 0.183027 0.173061 0.163581 0.154566 0.145995 0.137852 0.130116 0.122771 0.115799 0.109184 0.102910 0.096962 0.091325 0.085985 0.080928 0.076141 0.071611 0.067326 0.063274 0.059445 0.055827 0.052411 0.049185 0.046141 0.043270 0.040562 0.038010 0.035605 0.033341 0.031208 0.029202 0.027314 0.025539 0.023870 0.022302 0.020830 0.019447 0.018150 0.016932 0.015791 0.014721 0.013718 0.012779 0.011900 0.011077 0.010307 0.009587 0.008914 0.008285 0.007698 0.007149 0.006638 0.006160 0.005715 0.005300 0.004913 0.004552 0.004217 0.003905 0.003614 0.003344 0.003093 0.002860 0.002643 0.002442 0.002255 0.002082 0.001921 0.001772 0.001634 0.001506 0.001388
653.307137 649.979708 646.653786 643.329385 640.006517 636.685190 633.365409 630.047176 626.730488 623.415338 620.101717 616.789609 613.478994 610.169847 606.862137 603.555827 600.250875 596.947230 593.644837 590.343632 587.043544 583.744496 580.446399 577.149159 573.852671 570.556823 567.261492 563.966544 560.671839 557.377222 554.082532 550.787593 547.492221 544.196220 540.899381 537.601485 534.302302 531.001587 520.161364 511.888206 505.046075 498.817147 492.950700 487.330260 481.890603 476.590950 471.403855 466.309852 461.294573 456.347081 451.458841 446.623058 441.834229 437.087832 432.380109 427.707901 423.068527 418.459697 413.879436 409.326033 404.797995 400.294014 395.812936 391.353740 386.915516 382.497454 378.098826 373.718977 369.357316 365.013307 360.686461 356.376332 352.082512 347.804625 343.542324 339.295286 335.063213 330.845827 326.642864 322.454079 318.279240 314.118127 309.970532 305.836254 301.715103 297.606897 293.511457 289.428615 285.358204 281.300065 277.254040 273.219978 269.197727 265.187143 261.188080 257.200396 253.223953 249.258611 245.304234 241.360688 237.427837 233.505549 229.593693 225.692137 221.800752 217.919408 214.047977 210.186331 206.334342 202.491884 198.658831 194.835058 191.020440 187.214852 183.418171 179.630274 175.851037 172.080339 168.318059 164.564076 160.818269 157.080519 153.350708 149.628716 145.914426 142.207722 138.508488 134.816607 131.131965 127.454448 123.783944 120.120339 116.463522 112.813383 109.169811 105.532698 101.901935 98.277414 94.659030 91.046677 87.440250 83.839645 80.244759 76.655490 73.085857 69.616370 66.257122 63.005114 59.857544 56.811786 53.865382 51.016025 48.261545 45.599906 43.029188 40.547587 38.153399 35.845020 33.620936 31.479716 29.420013 27.440553 25.540131 23.717614 21.971927 20.302058 18.707053 17.186010 15.738079 14.362462 13.058405 11.825203 10.662191 9.568748 8.544294 7.588287 6.700224 5.879637 5.126096 4.439206 3.818602 3.263959 2.774978 2.351397 1.992984 1.699537 1.470887 1.306895 1.207451 1.153792 1.103652 1.055367 1.008885 0.964151 0.921115 0.879725 0.839931 0.801684 0.764936 0.729639 0.695749 0.663219 0.632006 0.602066 0.573358 0.545839 0.519471 0.494213 0.470028 0.446877 0.424724 0.403535 0.383273 0.363906 0.345401 0.327725 0.310847 0.294738 0.279368 0.264708 0.250731 0.237409 0.224718 0.212630 0.201123 0.190171 0.179753 0.169846 0.160428 0.151479 0.142978 0.134907 0.127246 0.119977 0.113083 0.106546 0.100352 0.094484 0.088927 0.083666 0.078688 0.073980 0.069528 0.065320 0.061345 0.057590 0.054046 0.050701 0.047546 0.044571 0.041766 0.039124 0.036635 0.034292 0.032087 0.030013 0.028063 0.026229 0.024506 0.022888 0.021369 0.019943 0.018606 0.017351 0.016176 0.015074 0.014042 0.013076 0.012171 0.011325 0.010534 0.009795 0.009104 0.008458 0.007856 0.007293 0.006769 0.006279 0.005823 0.005398 0.005002 0.004634 0.004291 0.003971 0.003675 0.003399 0.003142 0.002904 0.002683 0.002478 0.002287 0.002111 0.001947 0.001795 0.001655 0.001525
653.307137 649.979708 646.653786 643.329385 640.006517 636.685190 633.365409 630.047176 626.730488 623.415338 620.101717 616.789609 613.478994 610.169847 606.862137 603.555827 600.250875 596.947230 593.644837 590.343632 587.043544 583.744496 580.446399 577.149159 573.852671 570.556823 567.261492 563.966544 560.671839 557.377222 554.082532 550.787593 547.492221 544.196220 540.899381 537.601485 534.302302 531.001587 527.699086 524.394532 521.087645 517.778135 514.465698 511.150019 507.830771 504.507615 499.080856 486.834922 479.052637 472.265879 465.997768 460.061412 454.360679 448.838489 443.457738 438.192745 433.024902 427.940235 422.927954 417.979537 413.088123 408.248101 403.454821 398.704382 393.993478 389.319281 384.679355 380.071584 375.494116 370.945324 366.423769 361.928170 357.457384 353.010383 348.586242 344.184122 339.803261 335.442962 331.102588 326.781553 322.479315 318.195372 313.929259 309.680542 305.448813 301.233691 297.034816 292.851849 288.684467 284.532367 280.395255 276.272854 272.164898 268.071130 263.991305 259.925184 255.872537 251.833143 247.806785 243.793253 239.792342 235.803853 231.827592 227.863366 223.910990 219.970280 216.041057 212.123144 208.216367 204.320555 200.435540 196.561157 192.697241 188.843632 185.000169 181.166697 177.343059 173.529103 169.724676 165.929629 162.143813 158.367082 154.599291 150.840297 147.089958 143.348133 139.614683 135.889471 132.172362 128.463219 124.761911 121.068306 117.382272 113.703681 110.032405 106.368317 102.711293 99.061209 95.417942 91.781371 88.151375 84.527838 80.910640 77.299666 73.708919 70.218899 66.839683 63.568261 60.401817 57.337714 54.373481 51.506798 48.735486 46.057496 43.470899 40.973877 38.564718 36.241806 34.003617 31.848711 29.775730 27.783390 25.870479 24.035851 22.278426 20.597180 18.991151 17.459429 16.001155 14.615523 13.301771 12.059184 10.887092 9.784866 8.751917 7.787696 6.891692 6.063432 5.302477 4.608424 3.980906 3.419586 2.924162 2.494364 2.129953 1.830723 1.596498 1.427132 1.322511 1.263866 1.208923 1.156016 1.105085 1.056072 1.008920 0.963572 0.919974 0.878072 0.837813 0.799146 0.762019 0.726383 0.692191 0.659394 0.627947 0.597804 0.568921 0.541254 0.514763 0.489405 0.465142 0.441933 0.419741 0.398529 0.378261 0.358901 0.340417 0.322774 0.305940 0.289884 0.274577 0.259987 0.246087 0.232850 0.220247 0.208254 0.196845 0.185995 0.175681 0.165881 0.156571 0.147732 0.139342 0.131382 0.123832 0.116674 0.109891 0.103465 0.097379 0.091619 0.086167 0.081011 0.076136 0.071528 0.067175 0.063064 0.059182 0.055520 0.052064 0.048806 0.045736 0.042842 0.040117 0.037551 0.035137 0.032865 0.030729 0.028722 0.026835 0.025063 0.023400 0.021838 0.020374 0.019000 0.017713 0.016506 0.015376 0.014318 0.013328 0.012402 0.011535 0.010726 0.009969 0.009262 0.008602 0.007986 0.007412 0.006876 0.006377 0.005911 0.005478 0.005074 0.004698 0.004349 0.004024 0.003722 0.003441 0.003180 0.002938 0.002713 0.002505 0.002311 0.002132 0.001966 0.001812 0.001670
653.307137 649.979708 646.653786 643.329385 640.006517 636.685190 633.365409 630.047176 626.730488 623.415338 620.101717 616.789609 613.478994 610.169847 606.862137 603.555827 600.250875 596.947230 593.644837 590.343632 587.043544 583.744496 580.446399 577.149159 573.852671 570.556823 567.261492 563.966544 560.671839 557.377222 554.082532 550.787593 547.492221 544.196220 540.899381 537.601485 534.302302 531.001587 527.699086 524.394532 521.087645 517.778135 514.465698 511.150019 507.830771 504.507615 501.180201 497.848168 494.511143 491.168743 487.820574 484.466234 481.105310 477.737381 463.717269 455.372842 448.256184 441.746004 435.615717 429.752385 424.090131 418.586611 413.212742 407.947555 402.775360 397.684074 392.664162 387.707959 382.809193 377.962666 373.164012 368.409527 363.696039 359.020807 354.381445 349.775861 345.202211 340.658859 336.144343 331.657355 327.196713 322.761350 318.350296 313.962663 309.597639 305.254477 300.932488 296.631033 292.349517 288.087387 283.844123 279.619241 275.412283 271.222815 267.050431 262.894741 258.755377 254.631986 250.524234 246.431797 242.354367 238.291646 234.243347 230.209195 226.188921 222.182267 218.188981 214.208819 210.241544 206.286925 202.344736 198.414758 194.496775 190.590577 186.695958 182.812717 178.940657 175.079584 171.229307 167.389640 163.560399 159.741404 155.932478 152.133445 148.344135 144.564377 140.794006 137.032858 133.280769 129.537582 125.803138 122.077283 118.359864 114.650730 110.949733 107.256725 103.571562 99.894100 96.224200 92.561721 88.906526 85.258479 81.617447 77.983296 74.370017 70.858090 67.457581 64.165463 60.978907 57.895262 54.912043 52.026918 49.237695 46.542311 43.938825 41.425408 39.000335 36.661980 34.408807 32.239365 30.152285 28.146272 26.220105 24.372627 22.602748 20.909435 19.291715 17.748670 16.279432 14.883184 13.559157 12.306628 11.124916 10.013385 8.971439 7.998519 7.094108 6.257723 5.488920 4.787288 4.152450 3.584066 3.081824 2.645448 2.274693 1.969346 1.729224 1.554175 1.444079 1.380160 1.320140 1.262346 1.206712 1.153175 1.101671 1.052140 1.004522 0.958757 0.914788 0.872557 0.832011 0.793094 0.755754 0.719938 0.685597 0.652681 0.621141 0.590930 0.562003 0.534315 0.507821 0.482479 0.458248 0.435088 0.412958 0.391820 0.371638 0.352375 0.333996 0.316467 0.299754 0.283825 0.268650 0.254198 0.240439 0.227345 0.214889 0.203044 0.191785 0.181085 0.170922 0.161272 0.152113 0.143423 0.135181 0.127367 0.119962 0.112946 0.106303 0.100014 0.094063 0.088435 0.083113 0.078083 0.073330 0.068842 0.064605 0.060607 0.056835 0.053278 0.049926 0.046767 0.043792 0.040992 0.038356 0.035876 0.033545 0.031353 0.029294 0.027359 0.025543 0.023839 0.022240 0.020741 0.019335 0.018018 0.016785 0.015630 0.014549 0.013538 0.012592 0.011708 0.010882 0.010111 0.009390 0.008718 0.008091 0.007506 0.006961 0.006453 0.005979 0.005539 0.005129 0.004747 0.004392 0.004063 0.003756 0.003471 0.003207 0.002962 0.002734 0.002523 0.002328 0.002146 0.001978 0.001823
