ncols        169
nrows        31
xllcorner    80305
yllcorner    239445
cellsize     10.000000000000
NODATA_value  -99999
980.96026611328125 981.060791015625 982.0472412109375 983.7857666015625 984.26275634765625 984.61126708984375 984.45526123046875 981.6142578125 979.0040283203125 981.9210205078125 985.0455322265625 984.85675048828125 981.8134765625 979.9532470703125 979.82073974609375 979.0205078125 979.249755859375 978.29376220703125 979.583740234375 980.5552978515625 982.021728515625 982.9429931640625 983.480712890625 982.5264892578125 982.1107177734375 983.61053466796875 984.761962890625 983.0732421875 983.40447998046875 984.697265625 985.334716796875 984.10498046875 982.4432373046875 981.5567626953125 980.31103515625 979.39276123046875 978.5155029296875 977.90753173828125 977.29449462890625 976.78302001953125 976.01904296875 974.9625244140625 974.47076416015625 973.552978515625 972.40948486328125 971.16497802734375 969.93524169921875 968.8397216796875 967.198974609375 965.91925048828125 964.812255859375 964.57550048828125 963.646728515625 962.5150146484375 961.45550537109375 960.187744140625 959.09149169921875 957.99273681640625 957.103759765625 955.56951904296875 954.28997802734375 953.5047607421875 951.92572021484375 950.54547119140625 949.6087646484375 948.8482666015625 948.1182861328125 946.60650634765625 945.68927001953125 944.98828125 940.5794677734375 935.18048095703125 931.14398193359375 928.4725341796875 927.052978515625 926.1112060546875 926.01348876953125 926.4742431640625 927.0350341796875 927.94873046875 930.322509765625 931.62249755859375 928.02423095703125 922.58074951171875 918.66973876953125 914.99798583984375 911.3399658203125 907.04302978515625 902.19146728515625 897.81549072265625 893.74102783203125 888.5997314453125 882.0557861328125 872.022216796875 864.85198974609375 858.49273681640625 852.18597412109375 846.0262451171875 844.5517578125 846.561767578125 848.32470703125 844.52374267578125 840.864501953125 846.95648193359375 851.95751953125 859.63446044921875 866.62823486328125 867.0152587890625 863.77252197265625 858.6514892578125 854.86273193359375 855.978271484375 860.04302978515625 864.0272216796875 868.71075439453125 873.84423828125 873.3887939453125 868.33575439453125 863.90875244140625 857.81597900390625 863.28271484375 868.50750732421875 871.60223388671875 873.67926025390625 873.63299560546875 869.99151611328125 865.144775390625 861.18048095703125 860.99102783203125 856.05950927734375 851.8594970703125 848.9427490234375 851.84722900390625 852.927734375 849.88775634765625 845.5897216796875 845.89373779296875 846.4329833984375 843.96502685546875 838.58447265625 838.21826171875 841.52178955078125 843.3197021484375 842.34149169921875 838.4644775390625 836.64276123046875 835.14227294921875 827.3504638671875 817.8187255859375 809.83001708984375 800.6712646484375 793.4207763671875 780.87225341796875 769.51025390625 760.218017578125 746.13775634765625 743.60650634765625 748.2864990234375 752.3914794921875 756.7862548828125 760.69500732421875 761.95574951171875 765.019775390625 767.86651611328125 772.84100341796875 777.6385498046875 782.58575439453125 787.643798828125 785.97198486328125
978.708251953125 978.3594970703125 979.519775390625 980.77874755859375 981.2869873046875 981.447265625 981.26324462890625 978.91351318359375 976.6185302734375 978.95849609375 981.927001953125 982.09326171875 979.03271484375 977.63671875 977.260986328125 977.09228515625 977.481201171875 976.61651611328125 977.2705078125 978.50677490234375 979.865478515625 980.9339599609375 981.4224853515625 980.38323974609375 979.813232421875 980.051513671875 981.03399658203125 978.90478515625 979.47900390625 982.51397705078125 983.08251953125 981.363525390625 979.9012451171875 979.61376953125 978.531005859375 976.83575439453125 976.15350341796875 975.509521484375 974.96624755859375 974.21826171875 973.281005859375 972.90948486328125 972.376708984375 971.5572509765625 970.0455322265625 969.15325927734375 968.0560302734375 967.240478515625 965.84326171875 964.31298828125 962.94647216796875 962.602783203125 962.02001953125 960.7132568359375 959.8082275390625 958.6197509765625 957.44573974609375 956.240966796875 955.2857666015625 953.98876953125 952.4539794921875 952.01904296875 950.8494873046875 949.4847412109375 948.072998046875 947.282470703125 946.68603515625 945.343994140625 943.95623779296875 942.94598388671875 941.031005859375 935.54248046875 930.7967529296875 926.7232666015625 925.35498046875 923.44000244140625 923.17578125 923.5062255859375 924.1097412109375 924.49072265625 926.3709716796875 929.22625732421875 927.792724609375 922.14923095703125 917.35601806640625 913.5679931640625 909.87799072265625 906.2432861328125 902.33502197265625 898.76397705078125 895.67401123046875 891.00299072265625 884.19049072265625 875.2254638671875 867.06427001953125 860.9425048828125 855.63323974609375 849.11273193359375 841.4742431640625 839.09326171875 840.11676025390625 840.739501953125 837.8594970703125 844.177734375 849.26776123046875 857.635986328125 866.26275634765625 871.688720703125 869.40850830078125 863.5767822265625 856.438720703125 850.84625244140625 853.64898681640625 858.833740234375 864.155029296875 869.6614990234375 870.656005859375 865.6405029296875 861.89801025390625 856.0247802734375 860.0985107421875 866.0262451171875 869.572265625 871.1405029296875 868.968017578125 866.22900390625 861.4482421875 855.79400634765625 855.5615234375 852.8504638671875 847.33624267578125 843.6407470703125 844.20001220703125 846.82977294921875 844.9794921875 838.74127197265625 837.8914794921875 839.7977294921875 836.9287109375 831.1929931640625 830.53973388671875 835.42578125 837.282470703125 836.0682373046875 832.36102294921875 831.344970703125 831.56976318359375 829.3385009765625 822.87225341796875 817.634765625 804.84552001953125 793.37701416015625 777.7340087890625 767.7440185546875 757.16748046875 742.5565185546875 739.04473876953125 741.15948486328125 747.24700927734375 749.7874755859375 752.43426513671875 754.81097412109375 757.5169677734375 760.509033203125 763.85125732421875 770.58123779296875 777.5665283203125 784.1495361328125 780.0684814453125
976.4112548828125 975.28277587890625 976.105712890625 977.3917236328125 978.1920166015625 978.45025634765625 978.14453125 975.8134765625 974.1142578125 976.14251708984375 979.31976318359375 980.2547607421875 976.84173583984375 975.218994140625 974.75201416015625 975.3587646484375 975.73675537109375 974.13897705078125 975.19024658203125 976.2987060546875 977.5267333984375 978.031494140625 979.2755126953125 978.25 977.54400634765625 977.927490234375 977.947998046875 975.5877685546875 976.5467529296875 979.5572509765625 979.79400634765625 978.60302734375 977.37200927734375 977.2982177734375 976.78900146484375 974.843505859375 973.1507568359375 973.10650634765625 972.34375 972.104248046875 971.08050537109375 970.937255859375 969.88427734375 969.56024169921875 968.0880126953125 966.7347412109375 965.77423095703125 965.32696533203125 964.26275634765625 962.957763671875 961.30224609375 960.21649169921875 959.802490234375 958.72698974609375 957.8912353515625 956.8070068359375 955.646484375 954.67950439453125 953.78350830078125 952.1944580078125 950.84173583984375 950.33148193359375 949.29376220703125 948.15802001953125 946.91925048828125 945.69927978515625 944.74273681640625 943.77972412109375 942.80926513671875 941.8687744140625 940.79901123046875 936.310791015625 931.40899658203125 926.6080322265625 923.0770263671875 921.895751953125 920.1724853515625 920.5054931640625 921.0875244140625 921.48052978515625 922.8172607421875 925.95599365234375 926.365234375 922.5482177734375 917.446533203125 913.0250244140625 909.0167236328125 905.3812255859375 902.0205078125 898.51898193359375 895.1400146484375 891.47149658203125 885.82525634765625 878.759521484375 869.28948974609375 862.5772705078125 857.02923583984375 849.9534912109375 842.2742919921875 836.69775390625 835.13226318359375 836.5555419921875 835.03350830078125 840.16375732421875 847.198486328125 854.926513671875 861.85400390625 867.8232421875 871.55474853515625 866.16448974609375 858.247802734375 851.0157470703125 847.15948486328125 852.3287353515625 858.010986328125 862.197998046875 863.833984375 862.8902587890625 859.6474609375 853.7982177734375 856.145263671875 864.30596923828125 868.19775390625 866.59075927734375 863.165283203125 860.74774169921875 858.1600341796875 852.2977294921875 848.74749755859375 848.12451171875 844.63726806640625 839.69122314453125 837.87322998046875 840.7257080078125 839.55322265625 834.3065185546875 830.09375 830.3070068359375 825.292724609375 817.269287109375 824.15875244140625 829.164794921875 830.70001220703125 829.395263671875 825.978759765625 824.5164794921875 823.72125244140625 823.822021484375 820.4744873046875 808.2442626953125 800.334716796875 787.4735107421875 773.57373046875 763.1104736328125 754.563232421875 745.16455078125 737.71624755859375 734.56048583984375 740.17523193359375 744.82000732421875 745.0064697265625 747.2647705078125 749.37677001953125 753.0670166015625 758.5264892578125 765.4747314453125 773.50225830078125 779.15802001953125 775.6507568359375
973.5792236328125 973.0364990234375 972.9622802734375 974.5670166015625 975.43499755859375 975.6162109375 974.86273193359375 972.81024169921875 971.52801513671875 973.61077880859375 976.8914794921875 978.052001953125 974.96649169921875 972.89697265625 972.6937255859375 973.2235107421875 973.9117431640625 971.7335205078125 973.2247314453125 974.0567626953125 975.17926025390625 975.68023681640625 976.95172119140625 976.1390380859375 975.146484375 975.667236328125 975.5107421875 973.03997802734375 974.2552490234375 976.94122314453125 976.854248046875 975.72576904296875 975.22698974609375 974.8587646484375 974.6514892578125 973.061279296875 971.75323486328125 970.7330322265625 970.42376708984375 969.97503662109375 968.8709716796875 968.24749755859375 967.17974853515625 966.8609619140625 965.82098388671875 964.6917724609375 963.4334716796875 963.010498046875 962.37322998046875 961.250732421875 959.60699462890625 958.30377197265625 957.57275390625 956.6304931640625 955.7044677734375 954.87750244140625 953.95697021484375 952.9117431640625 951.9000244140625 950.78851318359375 949.5572509765625 948.50872802734375 947.4830322265625 946.5037841796875 945.4849853515625 944.4342041015625 943.322509765625 942.42724609375 941.646240234375 940.2352294921875 939.51824951171875 936.8087158203125 931.78851318359375 926.810791015625 922.3907470703125 919.73101806640625 918.49127197265625 917.16925048828125 917.8759765625 918.6099853515625 919.6142578125 922.333984375 923.59173583984375 921.4119873046875 918.467529296875 913.7957763671875 909.84576416015625 905.927490234375 902.49749755859375 898.89324951171875 894.7237548828125 890.90350341796875 886.479248046875 880.54925537109375 873.30853271484375 865.3037109375 859.13250732421875 852.43023681640625 844.60601806640625 836.60748291015625 832.3232421875 832.1112060546875 831.6512451171875 836.81597900390625 844.44622802734375 850.812255859375 858.02801513671875 862.23248291015625 869.020263671875 866.7862548828125 858.7755126953125 851.5455322265625 844.5780029296875 844.01220703125 849.416015625 853.5262451171875 856.8067626953125 859.12249755859375 856.18572998046875 849.20501708984375 854.50927734375 862.822265625 865.75225830078125 862.87799072265625 857.69024658203125 854.71826171875 853.02001953125 848.87451171875 842.7852783203125 841.23724365234375 840.90325927734375 836.92578125 832.46673583984375 834.91998291015625 834.2552490234375 829.229736328125 823.96026611328125 820.540283203125 807.39599609375 805.3599853515625 810.616455078125 823.0889892578125 824.30126953125 821.31201171875 816.90948486328125 816.70074462890625 813.8082275390625 814.82550048828125 812.313720703125 802.2750244140625 793.64874267578125 784.1815185546875 773.843017578125 764.9000244140625 755.0269775390625 747.1929931640625 736.8997802734375 734.0882568359375 732.719970703125 737.32025146484375 739.53350830078125 741.32177734375 742.13800048828125 746.17950439453125 752.801513671875 759.7230224609375 767.50299072265625 771.3919677734375 772.7437744140625
971.052978515625 970.53448486328125 970.5255126953125 971.8900146484375 972.82049560546875 973.25750732421875 972.5787353515625 970.1962890625 969.093017578125 970.9925537109375 974.0572509765625 975.519287109375 972.5384521484375 970.57421875 970.4267578125 971.0465087890625 971.68896484375 969.95849609375 970.9324951171875 972.00323486328125 972.44073486328125 972.916259765625 974.40350341796875 973.874755859375 973.300537109375 972.9112548828125 972.8687744140625 970.5557861328125 972.1669921875 974.07073974609375 973.73046875 973.0145263671875 972.761474609375 972.22772216796875 972.23077392578125 971.43450927734375 969.1300048828125 968.125732421875 967.83203125 968.04498291015625 966.98822021484375 965.719482421875 964.7149658203125 964.15545654296875 963.40924072265625 962.60174560546875 961.655517578125 960.6729736328125 959.749267578125 959.25250244140625 958.039794921875 956.563720703125 955.563232421875 954.68450927734375 953.76904296875 952.8809814453125 952.57025146484375 951.498779296875 950.26800537109375 949.09051513671875 948.1932373046875 947.23675537109375 945.73779296875 945.1414794921875 944.08074951171875 942.90203857421875 941.65252685546875 940.29974365234375 939.78875732421875 938.78448486328125 937.16925048828125 936.09521484375 931.80950927734375 926.9677734375 922.55950927734375 918.40325927734375 916.1195068359375 914.8692626953125 914.8709716796875 915.8795166015625 916.82977294921875 918.6187744140625 919.740234375 918.95123291015625 918.77252197265625 915.3814697265625 911.3072509765625 907.0615234375 902.96099853515625 898.91473388671875 894.677734375 890.3909912109375 886.15447998046875 880.4212646484375 874.30926513671875 867.93572998046875 861.041748046875 853.4794921875 845.82049560546875 837.83526611328125 830.71051025390625 827.8492431640625 828.4522705078125 832.8494873046875 841.36279296875 845.9912109375 853.3785400390625 858.54998779296875 863.2235107421875 866.07550048828125 859.22100830078125 851.197998046875 842.4169921875 837.92498779296875 840.48626708984375 840.990966796875 842.72222900390625 843.272216796875 842.9327392578125 852.654296875 856.67327880859375 860.844970703125 863.63250732421875 859.6097412109375 853.9224853515625 848.67822265625 846.625 844.10101318359375 839.34075927734375 834.490234375 834.167724609375 832.959716796875 827.68023681640625 829.865234375 829.0899658203125 823.8817138671875 817.7440185546875 815.4215087890625 805.5579833984375 803.17822265625 803.7039794921875 816.3995361328125 814.1094970703125 810.4954833984375 806.34552001953125 805.23199462890625 804.6617431640625 806.322265625 806.52099609375 803.5257568359375 794.2972412109375 781.791015625 772.41497802734375 763.803466796875 754.57550048828125 747.9697265625 737.83575439453125 731.126708984375 728.196533203125 731.2760009765625 734.8394775390625 735.48651123046875 737.78875732421875 739.21527099609375 746.9097900390625 756.60626220703125 762.783203125 763.0272216796875 765.061767578125
968.56549072265625 968.22052001953125 968.4287109375 969.458251953125 970.468994140625 970.9022216796875 970.4954833984375 967.79351806640625 966.9417724609375 968.25177001953125 971.0050048828125 972.3397216796875 969.7550048828125 968.16998291015625 968.74749755859375 968.47528076171875 968.38824462890625 967.86676025390625 968.9205322265625 969.63922119140625 970.0360107421875 970.4012451171875 971.83575439453125 971.48052978515625 971.00103759765625 970.43450927734375 969.7122802734375 968.18524169921875 970.43701171875 971.44476318359375 970.71173095703125 970.12677001953125 969.727783203125 969.83349609375 969.7294921875 969.31024169921875 966.9207763671875 965.302001953125 965.3800048828125 965.84649658203125 965.1309814453125 963.71649169921875 962.4697265625 961.9122314453125 961.22125244140625 960.51123046875 959.46527099609375 958.2705078125 957.562255859375 956.88623046875 956.3275146484375 954.969482421875 953.58502197265625 952.7674560546875 952.1925048828125 951.031982421875 950.52276611328125 950.0062255859375 948.73797607421875 947.44451904296875 946.313232421875 945.500244140625 944.3115234375 943.1412353515625 942.189453125 941.33673095703125 940.02947998046875 938.301025390625 937.4632568359375 937.21728515625 935.157470703125 934.2257080078125 931.99847412109375 927.1495361328125 923.166259765625 919.20751953125 915.042236328125 912.6309814453125 911.93896484375 913.032470703125 914.009765625 915.24102783203125 915.8572998046875 915.80999755859375 919.0107421875 917.04827880859375 912.19500732421875 907.4127197265625 902.96649169921875 898.89349365234375 894.572265625 890.62774658203125 886.62298583984375 881.646484375 875.353759765625 868.185791015625 860.9437255859375 853.3592529296875 845.30975341796875 837.06201171875 829.4854736328125 824.49847412109375 824.208740234375 829.20977783203125 837.18951416015625 841.3497314453125 848.4305419921875 854.64373779296875 859.61700439453125 863.7459716796875 859.196044921875 849.88348388671875 839.6522216796875 836.2197265625 832.26727294921875 832.2860107421875 833.3125 838.7982177734375 844.94647216796875 852.1099853515625 855.56976318359375 860.58673095703125 860.426513671875 856.0572509765625 850.3162841796875 844.5347900390625 840.073974609375 837.59600830078125 834.3372802734375 829.8995361328125 827.01824951171875 827.2049560546875 822.73699951171875 824.70001220703125 823.4215087890625 819.04949951171875 812.094970703125 804.927734375 801.521728515625 798.6572265625 798.24725341796875 805.5379638671875 805.10675048828125 803.1910400390625 799.74798583984375 797.217041015625 798.25701904296875 797.62249755859375 798.0452880859375 797.77099609375 797.3475341796875 785.26873779296875 774.32574462890625 765.51800537109375 755.85198974609375 746.5679931640625 738.01025390625 726.16046142578125 724.3282470703125 725.79498291015625 731.0665283203125 731.83526611328125 731.96722412109375 733.738037109375 739.55950927734375 754.94525146484375 755.8585205078125 754.91351318359375 756.3172607421875
966.20947265625 965.9105224609375 966.1102294921875 966.88775634765625 968.02825927734375 968.8482666015625 968.59375 966.04827880859375 964.6142578125 965.63897705078125 967.9794921875 969.0579833984375 966.917236328125 965.98175048828125 966.498779296875 966.072998046875 965.8594970703125 965.812255859375 966.8677978515625 967.28375244140625 967.448974609375 968.060791015625 969.3447265625 969.47601318359375 968.7760009765625 968.42578125 966.9002685546875 966.355712890625 968.27301025390625 968.22125244140625 967.6915283203125 967.406982421875 967.03900146484375 967.4124755859375 967.2979736328125 966.64471435546875 964.6409912109375 962.6512451171875 962.4752197265625 963.2137451171875 963.11700439453125 961.9580078125 960.60400390625 959.91400146484375 959.57476806640625 958.51922607421875 957.33251953125 955.81976318359375 955.5792236328125 954.91748046875 954.342529296875 953.6182861328125 952.0968017578125 950.906494140625 950.2139892578125 949.1090087890625 948.5772705078125 948.20001220703125 947.21002197265625 945.4949951171875 944.469482421875 943.73974609375 942.437255859375 940.6419677734375 940.21673583984375 939.4217529296875 938.31103515625 936.5687255859375 935.0450439453125 935.2705078125 933.8494873046875 931.43597412109375 931.5067138671875 928.2020263671875 923.802734375 919.7664794921875 915.81500244140625 911.23724365234375 909.40399169921875 909.70977783203125 910.5264892578125 911.48272705078125 911.751220703125 913.83551025390625 918.0450439453125 918.8857421875 913.08526611328125 907.22222900390625 902.540771484375 898.156494140625 894.19573974609375 890.4415283203125 887.039794921875 882.2457275390625 876.3995361328125 869.47625732421875 862.1619873046875 854.56597900390625 846.3175048828125 837.50823974609375 829.7960205078125 822.21099853515625 819.9429931640625 826.0684814453125 833.33648681640625 837.77423095703125 841.9847412109375 847.44000244140625 854.01800537109375 860.3387451171875 858.79949951171875 848.08203125 839.2340087890625 833.4954833984375 828.78326416015625 827.198974609375 831.24127197265625 835.780029296875 841.25372314453125 846.6824951171875 852.10198974609375 856.95098876953125 856.70501708984375 852.415283203125 847.08203125 842.25750732421875 835.5205078125 831.12249755859375 827.95074462890625 824.854248046875 820.95098876953125 820.3682861328125 817.6927490234375 818.95074462890625 818.10198974609375 812.605712890625 807.45703125 799.458251953125 794.3602294921875 792.438720703125 791.08502197265625 795.05426025390625 796.2857666015625 795.94525146484375 792.64849853515625 789.76397705078125 789.34375 787.6099853515625 786.728271484375 786.2974853515625 784.989990234375 783.36822509765625 778.20977783203125 770.0247802734375 760.0849609375 748.24798583984375 739.9215087890625 728.8759765625 722.5985107421875 720.52423095703125 725.9415283203125 728.635498046875 728.4425048828125 728.88897705078125 733.62322998046875 742.09600830078125 743.8892822265625 745.1097412109375 746.947265625
964.03900146484375 963.78802490234375 963.9227294921875 964.5477294921875 965.572265625 966.6524658203125 966.5777587890625 964.42449951171875 962.82000732421875 963.0450439453125 964.864501953125 965.33648681640625 964.09027099609375 963.97076416015625 964.29449462890625 964.06573486328125 963.79876708984375 963.84075927734375 964.4517822265625 965.23095703125 965.51800537109375 965.76300048828125 966.64349365234375 967.40478515625 966.60650634765625 966.12872314453125 965.155517578125 964.58526611328125 965.709228515625 965.290771484375 964.77276611328125 964.7647705078125 964.62548828125 964.90625 964.88323974609375 964.3172607421875 962.863525390625 960.2974853515625 959.85650634765625 960.62799072265625 960.79296875 959.63250732421875 958.52978515625 957.7099609375 957.19500732421875 956.50750732421875 955.36175537109375 953.853271484375 953.3544921875 953.0562744140625 952.614990234375 951.83599853515625 950.53399658203125 949.1392822265625 948.5987548828125 947.84149169921875 946.93426513671875 946.1259765625 945.51776123046875 943.80950927734375 941.3375244140625 941.64404296875 940.66876220703125 938.79296875 937.6295166015625 937.5322265625 936.39300537109375 934.53948974609375 932.50225830078125 933.2042236328125 932.28802490234375 929.2049560546875 928.874267578125 928.447998046875 924.28997802734375 919.89599609375 915.7957763671875 911.46575927734375 907.552734375 906.91949462890625 907.636474609375 908.4649658203125 909.2564697265625 911.761474609375 916.2352294921875 918.5269775390625 913.478515625 907.66973876953125 902.34423828125 897.6717529296875 893.56396484375 889.8470458984375 886.4117431640625 881.938720703125 876.384765625 870.1727294921875 862.9747314453125 855.082763671875 846.801513671875 838.4940185546875 830.33575439453125 822.12298583984375 815.60723876953125 821.990478515625 828.60577392578125 835.13427734375 835.8497314453125 841.67626953125 847.89825439453125 855.698486328125 855.281982421875 844.9432373046875 838.28900146484375 830.978759765625 825.770263671875 823.6319580078125 827.16400146484375 833.0040283203125 835.7569580078125 840.34521484375 846.46502685546875 852.822265625 851.667236328125 848.509033203125 843.68377685546875 837.314208984375 832.228515625 826.1767578125 821.9320068359375 818.7747802734375 815.9735107421875 810.47625732421875 804.32122802734375 809.1629638671875 811.0997314453125 805.834716796875 801.9129638671875 796.68951416015625 789.72076416015625 785.3497314453125 784.22174072265625 784.520263671875 785.8499755859375 788.5765380859375 784.41351318359375 780.35772705078125 779.5777587890625 776.75146484375 777.490234375 777.688720703125 776.82373046875 775.67474365234375 776.249267578125 772.718994140625 763.178466796875 753.458984375 741.08251953125 728.62701416015625 720.9527587890625 718.56024169921875 721.22747802734375 726.11602783203125 725.5477294921875 724.82501220703125 727.57647705078125 729.45648193359375 731.58526611328125 732.00299072265625 737.9434814453125
962.04901123046875 961.72698974609375 962.010498046875 962.5517578125 962.656494140625 963.333740234375 963.4312744140625 963.040283203125 961.114990234375 960.73150634765625 962.2957763671875 962.66900634765625 961.72076416015625 962.09124755859375 961.96600341796875 961.99346923828125 961.8912353515625 961.8485107421875 962.364990234375 962.81951904296875 963.4775390625 963.529541015625 964.23126220703125 965.1710205078125 964.45098876953125 963.82098388671875 963.38824462890625 962.6824951171875 962.75701904296875 962.6405029296875 962.4024658203125 962.39849853515625 962.4962158203125 962.59698486328125 962.60772705078125 962.02325439453125 960.665771484375 958.11724853515625 957.46923828125 958.70703125 958.80126953125 957.7540283203125 956.52899169921875 955.59149169921875 954.75823974609375 954.2762451171875 953.4232177734375 952.03472900390625 950.9224853515625 950.85772705078125 950.58624267578125 950.2125244140625 948.8499755859375 947.09674072265625 946.0689697265625 945.55474853515625 944.85650634765625 944.0462646484375 943.3812255859375 941.71722412109375 938.978515625 939.02423095703125 938.8175048828125 937.3642578125 934.8070068359375 934.6102294921875 934.4530029296875 932.52923583984375 929.7705078125 930.781982421875 931.17523193359375 928.3907470703125 925.4749755859375 925.83050537109375 924.135009765625 919.34521484375 915.0057373046875 910.8525390625 906.645751953125 904.760498046875 904.84326171875 905.521484375 906.88775634765625 909.9735107421875 914.0054931640625 917.2752685546875 912.56500244140625 906.5975341796875 901.94921875 897.541015625 893.49951171875 889.76898193359375 884.884033203125 881.550537109375 875.77099609375 868.40997314453125 860.4012451171875 853.82000732421875 847.09197998046875 839.56298828125 831.1357421875 822.291748046875 811.074951171875 817.61602783203125 823.8275146484375 830.00677490234375 832.9097900390625 834.6732177734375 841.5479736328125 848.97100830078125 849.5047607421875 842.4337158203125 837.8170166015625 830.802490234375 822.739501953125 819.61151123046875 819.80450439453125 825.8175048828125 829.052490234375 834.30877685546875 840.53826904296875 847.1104736328125 845.92449951171875 842.96197509765625 839.94073486328125 834.31201171875 828.2032470703125 821.959716796875 817.03924560546875 812.9437255859375 807.57598876953125 800.9215087890625 796.48651123046875 800.05999755859375 803.2435302734375 800.59600830078125 795.66949462890625 791.2652587890625 786.03399658203125 779.6705322265625 777.75274658203125 776.30548095703125 782.35699462890625 781.4580078125 775.55902099609375 770.833251953125 771.19976806640625 769.4730224609375 769.33526611328125 769.6929931640625 768.5155029296875 767.79449462890625 768.937255859375 769.40374755859375 765.2047119140625 756.22222900390625 742.7540283203125 733.76849365234375 723.46575927734375 718.104736328125 717.832275390625 722.093017578125 724.52825927734375 722.04296875 721.3677978515625 720.8917236328125 719.8380126953125 723.834228515625 726.1240234375
960.12127685546875 959.7552490234375 959.7872314453125 960.4415283203125 960.292236328125 960.16552734375 960.79925537109375 961.2435302734375 960.06573486328125 958.615478515625 959.84698486328125 959.75323486328125 960.06500244140625 960.17626953125 960.0555419921875 960.011962890625 959.76226806640625 960.05377197265625 960.3685302734375 960.60699462890625 961.1185302734375 961.40301513671875 962.01251220703125 962.7454833984375 962.280517578125 961.811767578125 961.53973388671875 961.05224609375 960.113525390625 960.06298828125 960.30572509765625 960.31298828125 960.3270263671875 960.3692626953125 960.3712158203125 959.8690185546875 958.7822265625 956.6822509765625 955.09100341796875 955.88427734375 956.18603515625 955.96649169921875 954.5992431640625 953.6607666015625 952.39923095703125 951.581787109375 951.238525390625 950.2144775390625 948.84002685546875 948.21923828125 948.1865234375 948.48046875 947.82476806640625 945.3385009765625 943.53875732421875 942.8385009765625 942.48248291015625 941.68572998046875 941.24249267578125 940.2762451171875 937.68572998046875 936.29974365234375 936.29949951171875 935.40673828125 933.5565185546875 930.9267578125 931.3079833984375 930.3717041015625 927.365966796875 927.16876220703125 928.8502197265625 927.5679931640625 924.3807373046875 922.374267578125 922.71124267578125 919.0474853515625 914.6077880859375 910.5682373046875 906.20098876953125 902.8489990234375 902.22100830078125 902.79974365234375 904.7130126953125 907.6767578125 911.47198486328125 915.28875732421875 912.6080322265625 905.582763671875 900.0142822265625 896.2242431640625 892.70703125 888.9954833984375 884.1702880859375 878.27099609375 873.072021484375 863.9952392578125 855.11273193359375 849.1180419921875 843.6337890625 837.83624267578125 830.6865234375 821.8280029296875 808.894287109375 810.8837890625 818.76373291015625 823.62298583984375 828.77398681640625 829.8497314453125 835.71551513671875 843.43951416015625 846.0155029296875 841.25750732421875 835.62774658203125 829.40350341796875 820.2445068359375 817.7772216796875 813.522705078125 817.71148681640625 822.61798095703125 827.72698974609375 832.6142578125 837.63348388671875 837.771728515625 836.45123291015625 834.26251220703125 829.281982421875 824.52325439453125 818.99273681640625 812.74749755859375 805.249267578125 797.708984375 794.0364990234375 787.31524658203125 791.52203369140625 795.958984375 795.24700927734375 790.521728515625 785.342041015625 780.31072998046875 773.979248046875 771.5867919921875 770.14776611328125 774.3287353515625 775.25823974609375 770.3427734375 764.634521484375 763.83251953125 763.34423828125 761.520751953125 762.4407958984375 760.47100830078125 759.80548095703125 760.92724609375 762.00848388671875 761.4515380859375 756.4737548828125 745.071044921875 732.124267578125 725.89501953125 718.0272216796875 715.04473876953125 718.44073486328125 722.04901123046875 720.7860107421875 717.8079833984375 716.3284912109375 716.16375732421875 717.5574951171875 719.25347900390625
958.23077392578125 957.8282470703125 957.64501953125 958.0577392578125 958.030517578125 957.4346923828125 958.2760009765625 958.77349853515625 958.312255859375 956.68072509765625 957.33624267578125 957.38323974609375 957.8172607421875 958.0830078125 958.16448974609375 958.2025146484375 957.8922119140625 958.1142578125 958.40252685546875 958.6082763671875 958.86248779296875 959.34326171875 959.86798095703125 960.32452392578125 959.9542236328125 959.9844970703125 959.6187744140625 959.35723876953125 958.000732421875 957.96527099609375 958.58050537109375 958.364013671875 958.2437744140625 958.08001708984375 957.77874755859375 957.290771484375 956.33978271484375 954.635009765625 952.82098388671875 953.146484375 953.57476806640625 953.354248046875 952.29473876953125 951.2237548828125 950.4072265625 949.57373046875 948.89349365234375 948.32525634765625 947.3382568359375 945.61627197265625 945.3819580078125 945.990966796875 945.9522705078125 943.937255859375 941.4224853515625 940.365478515625 940.0472412109375 939.4312744140625 938.5419921875 937.86572265625 936.802001953125 934.86199951171875 933.4442138671875 932.26025390625 931.2542724609375 928.9744873046875 927.3787841796875 927.874755859375 925.8914794921875 923.1722412109375 924.60595703125 925.21600341796875 923.86376953125 920.24951171875 919.94976806640625 919.32275390625 914.6495361328125 910.17626953125 905.84576416015625 901.24224853515625 900.52972412109375 900.29925537109375 902.3072509765625 905.14599609375 908.35101318359375 910.998779296875 911.8800048828125 905.8759765625 899.48175048828125 894.89801025390625 891.4024658203125 886.3695068359375 880.61224365234375 875.769775390625 867.09600830078125 856.98773193359375 848.65924072265625 842.1922607421875 838.0689697265625 832.10247802734375 826.552978515625 819.800048828125 807.72698974609375 804.60052490234375 813.44573974609375 819.260009765625 824.1884765625 826.88800048828125 830.56201171875 841.0947265625 843.7254638671875 837.4954833984375 831.36328125 825.22027587890625 816.79248046875 815.8167724609375 812.081787109375 810.0247802734375 815.0302734375 820.21600341796875 825.876953125 830.0372314453125 830.3990478515625 830.1605224609375 827.94677734375 823.5982666015625 819.20654296875 812.833740234375 804.77325439453125 798.8785400390625 792.98223876953125 785.9005126953125 781.73773193359375 784.85546875 789.302001953125 789.3089599609375 785.87750244140625 780.0982666015625 775.38348388671875 768.802001953125 765.6455078125 763.801513671875 765.29296875 768.51953125 764.3125 759.86224365234375 756.519775390625 756.3597412109375 755.0882568359375 755.665283203125 753.95574951171875 752.54296875 752.978271484375 754.05126953125 753.93426513671875 752.27398681640625 745.46722412109375 732.470947265625 726.50274658203125 719.23248291015625 713.7034912109375 714.8697509765625 717.635498046875 717.35723876953125 713.85699462890625 713.0050048828125 712.073486328125 716.6212158203125 718.59100341796875
955.9697265625 955.89801025390625 955.55975341796875 955.55572509765625 955.48175048828125 954.949462890625 955.178466796875 955.70654296875 955.4530029296875 954.7535400390625 955.072265625 955.55523681640625 955.677490234375 956.05975341796875 956.0489501953125 956.1002197265625 956.15826416015625 956.05902099609375 956.2977294921875 956.6300048828125 956.626708984375 956.91302490234375 957.52227783203125 957.7724609375 957.49298095703125 957.27325439453125 957.0977783203125 957.19000244140625 956.52001953125 955.8287353515625 956.16973876953125 955.94500732421875 955.9847412109375 955.76849365234375 955.43572998046875 954.864990234375 954.14276123046875 952.53173828125 950.6727294921875 950.32025146484375 950.7864990234375 950.9794921875 949.98699951171875 948.88372802734375 948.49853515625 947.81500244140625 947.0155029296875 946.831787109375 945.5067138671875 943.72076416015625 942.59173583984375 943.00927734375 943.6719970703125 942.759521484375 940.041015625 938.3895263671875 937.80426025390625 937.38275146484375 936.26025390625 934.75 935.16876220703125 934.31024169921875 932.136962890625 930.2120361328125 927.2332763671875 926.06597900390625 924.17974853515625 924.0999755859375 923.917236328125 920.5037841796875 919.45599365234375 921.48675537109375 921.88372802734375 919.49224853515625 916.75152587890625 917.45526123046875 913.811279296875 909.2645263671875 904.72174072265625 900.4842529296875 897.9957275390625 898.18524169921875 900.0484619140625 901.91876220703125 904.24072265625 906.6884765625 908.845703125 904.0460205078125 898.46551513671875 893.8177490234375 890.281005859375 885.4227294921875 878.5517578125 871.7347412109375 863.4859619140625 853.552734375 842.1605224609375 834.12451171875 832.08099365234375 827.1944580078125 820.7490234375 814.13946533203125 805.57098388671875 800.1412353515625 808.78802490234375 815.41375732421875 819.95599365234375 823.7767333984375 827.081787109375 837.00201416015625 839.51751708984375 833.09576416015625 826.69097900390625 820.2669677734375 811.71002197265625 810.563720703125 808.39324951171875 805.3795166015625 807.1080322265625 812.27374267578125 818.0899658203125 822.323974609375 823.51751708984375 824.0252685546875 821.52978515625 817.3900146484375 813.8287353515625 808.70648193359375 801.978759765625 793.3997802734375 785.781982421875 781.3685302734375 774.2235107421875 778.25775146484375 781.90374755859375 781.5364990234375 780.1094970703125 776.16552734375 770.2977294921875 765.31524658203125 760.56475830078125 758.43499755859375 758.35723876953125 761.2347412109375 758.34649658203125 754.56976318359375 751.21124267578125 750.55450439453125 749.271240234375 749.208740234375 747.7874755859375 746.29052734375 746.23724365234375 746.43902587890625 746.00848388671875 745.0159912109375 739.94476318359375 731.45074462890625 726.06951904296875 720.3375244140625 714.57275390625 711.5474853515625 712.5987548828125 713.699462890625 710.781494140625 709.07452392578125 708.206787109375 709.10076904296875 712.4200439453125
954.10247802734375 953.7872314453125 953.6712646484375 953.1312255859375 953.1495361328125 952.177978515625 952.51702880859375 952.85650634765625 953.1087646484375 952.9072265625 952.8642578125 953.5904541015625 953.95098876953125 954.00848388671875 954.095458984375 954.1614990234375 954.20751953125 954.16375732421875 954.27825927734375 954.62347412109375 954.61572265625 954.947998046875 955.51300048828125 955.665283203125 955.5880126953125 955.07000732421875 954.90325927734375 955.0982666015625 954.61773681640625 954 953.5467529296875 953.5272216796875 953.602783203125 953.522216796875 953.13800048828125 952.3890380859375 951.29327392578125 950.293212890625 948.7235107421875 947.634521484375 947.915771484375 948.41552734375 948.17498779296875 947.1082763671875 946.76123046875 946.334228515625 945.05975341796875 944.5775146484375 944.1719970703125 942.32049560546875 940.48046875 940.2647705078125 940.75 941.0799560546875 939.020263671875 936.70599365234375 935.62200927734375 935.44647216796875 934.96124267578125 933.052001953125 932.082763671875 932.53472900390625 931.0689697265625 929.45947265625 926.99273681640625 923.35101318359375 920.896240234375 919.2340087890625 919.5775146484375 917.8399658203125 915.39227294921875 917.01849365234375 919.21551513671875 917.93499755859375 914.70123291015625 914.3392333984375 913.06976318359375 908.354248046875 903.5347900390625 899.30499267578125 895.95648193359375 895.217529296875 896.38848876953125 898.009765625 900.353759765625 902.8477783203125 905.04052734375 900.94775390625 894.7900390625 890.2662353515625 886.77874755859375 881.75177001953125 873.87451171875 866.34576416015625 858.08026123046875 848.54974365234375 839.82073974609375 830.5355224609375 823.2650146484375 820.3790283203125 815.07177734375 804.34527587890625 797.6829833984375 796.1302490234375 804.57647705078125 811.2039794921875 816.38623046875 820.436767578125 823.22998046875 831.5059814453125 833.281494140625 828.18798828125 822.4632568359375 815.4830322265625 807.42022705078125 805.3084716796875 802.41375732421875 801.759765625 803.717529296875 804.5894775390625 809.48974609375 815.59124755859375 817.78924560546875 816.16748046875 814.8394775390625 810.83551025390625 806.21697998046875 801.76025390625 795.8594970703125 789.1612548828125 780.76226806640625 774.22772216796875 770.25 771.20623779296875 774.98626708984375 774.104248046875 773.937744140625 771.70147705078125 766.532958984375 761.50225830078125 757.3192138671875 753.3067626953125 752.04296875 753.1717529296875 752.37200927734375 747.76702880859375 745.9019775390625 745.27899169921875 744.0262451171875 742.84600830078125 742.07550048828125 740.7535400390625 739.46551513671875 738.77825927734375 738.24627685546875 737.5615234375 734.43426513671875 728.10400390625 723.13525390625 721.94677734375 716.70623779296875 711.45849609375 709.873291015625 709.5782470703125 709.68548583984375 707.5789794921875 705.396484375 703.230224609375 705.37548828125
952.2705078125 952.09375 951.636474609375 951.198974609375 950.447998046875 950.26025390625 950.2762451171875 950.95697021484375 951.09075927734375 951.1307373046875 950.97552490234375 951.5679931640625 951.989501953125 951.8914794921875 952.239501953125 952.46624755859375 952.0789794921875 952.34075927734375 952.1405029296875 952.41375732421875 952.4742431640625 952.98095703125 953.5159912109375 953.6099853515625 953.36773681640625 952.730224609375 952.66424560546875 952.84625244140625 952.54949951171875 952.072265625 951.47149658203125 951.55426025390625 951.686767578125 950.822509765625 950.42926025390625 949.989013671875 948.82598876953125 947.98321533203125 947.018798828125 945.7432861328125 945.24774169921875 946.154296875 946.63275146484375 945.91473388671875 944.8389892578125 944.5887451171875 943.62750244140625 942.3504638671875 942.189208984375 941.1505126953125 939.0477294921875 937.563720703125 937.85174560546875 938.4937744140625 937.89898681640625 935.49072265625 933.53802490234375 932.625732421875 933.17572021484375 931.70098876953125 929.0867919921875 928.8487548828125 928.66876220703125 926.8294677734375 926.781494140625 924.2919921875 920.12823486328125 916.467529296875 913.88726806640625 913.19598388671875 911.2330322265625 912.58349609375 915.36322021484375 915.5562744140625 913.29498291015625 910.93499755859375 911.33624267578125 908.2554931640625 902.87548828125 898.520751953125 893.8482666015625 893.35076904296875 893.63800048828125 894.613037109375 896.09375 898.583251953125 901.5054931640625 899.6925048828125 892.98779296875 887.385498046875 882.53271484375 877.2459716796875 868.84649658203125 859.10546875 852.22747802734375 843.49273681640625 835.49749755859375 828.08074951171875 819.82025146484375 812.3375244140625 808.8037109375 800.1650390625 793.813232421875 793.86248779296875 799.1917724609375 805.5467529296875 811.73974609375 817.49072265625 819.6507568359375 824.095703125 824.5460205078125 819.30322265625 814.739013671875 809.5780029296875 803.9410400390625 800.00146484375 797.323974609375 796.8499755859375 799.614501953125 800.166259765625 803.24151611328125 808.5584716796875 811.229248046875 809.677734375 807.071533203125 803.04150390625 798.96697998046875 794.57073974609375 789.3175048828125 783.16424560546875 776.906982421875 769.780517578125 766.052734375 766.52972412109375 767.32550048828125 766.9415283203125 767.9520263671875 766.978515625 763.16552734375 757.552490234375 752.71624755859375 749.38275146484375 747.821533203125 745.96551513671875 744.6552734375 741.3232421875 740.7049560546875 741.20098876953125 739.60101318359375 737.67974853515625 736.64398193359375 735.5982666015625 734.14501953125 731.99749755859375 730.614990234375 729.89324951171875 728.02349853515625 723.2919921875 720.23150634765625 719.426025390625 718.8597412109375 713.968994140625 709.7249755859375 706.92901611328125 704.70001220703125 705.41351318359375 703.5675048828125 701.77825927734375 702.38800048828125
950.69525146484375 950.07122802734375 949.6912841796875 949.4542236328125 949.94873046875 949.41302490234375 948.39752197265625 949.00225830078125 949.406982421875 949.70501708984375 950.19873046875 949.886962890625 949.87274169921875 949.874755859375 950.30877685546875 950.6082763671875 950.1522216796875 950.2957763671875 950.01873779296875 950.2864990234375 950.470458984375 951.0687255859375 951.562744140625 951.36224365234375 951.00146484375 950.44677734375 950.3585205078125 950.43603515625 950.42401123046875 950.02252197265625 949.21026611328125 949.36102294921875 949.250244140625 948.70623779296875 947.729736328125 947.6409912109375 946.6419677734375 945.5419921875 944.88226318359375 943.9840087890625 943.302734375 944.76025390625 945.32421875 944.6409912109375 942.90875244140625 942.00347900390625 941.7967529296875 940.4110107421875 940.1102294921875 939.9434814453125 938.09222412109375 935.89453125 934.8599853515625 935.72125244140625 935.655029296875 934.3070068359375 931.561279296875 929.6199951171875 930.07470703125 929.67901611328125 927.48876953125 925.4239501953125 925.260009765625 923.9697265625 923.74951171875 923.1605224609375 921.35223388671875 917.905029296875 912.5057373046875 907.7952880859375 906.5667724609375 907.572265625 911.34674072265625 912.592529296875 911.24176025390625 908.18548583984375 907.71728515625 907.2667236328125 902.88623046875 898.1312255859375 893.459716796875 890.2764892578125 890.39324951171875 891.697509765625 892.8294677734375 894.73828125 898.0087890625 896.72802734375 892.0892333984375 886.05023193359375 879.7547607421875 872.7769775390625 862.72021484375 852.709228515625 845.31201171875 837.2769775390625 829.958740234375 822.7177734375 816.864501953125 809.57476806640625 801.967529296875 794.89227294921875 790.61248779296875 790.73150634765625 794.7550048828125 801.03277587890625 808.39794921875 815.49652099609375 819.43548583984375 815.916259765625 814.35797119140625 811.7125244140625 808.0167236328125 804.228515625 801.0992431640625 796.87274169921875 792.4539794921875 792.86651611328125 793.801513671875 797.37725830078125 796.7344970703125 802.11328125 807.5780029296875 805.24725341796875 801.87750244140625 797.18524169921875 792.123046875 787.94427490234375 782.50799560546875 775.0052490234375 769.15899658203125 763.52276611328125 762.2862548828125 761.58477783203125 760.269775390625 760.31298828125 762.17352294921875 761.062255859375 758.384033203125 753.9219970703125 748.9112548828125 746.17852783203125 744.147216796875 742.6402587890625 740.84173583984375 738.8585205078125 737.72125244140625 737.249755859375 735.85498046875 733.92926025390625 731.7957763671875 730.7254638671875 729.11279296875 726.35601806640625 723.9727783203125 722.7557373046875 721.99853515625 719.60125732421875 718.53948974609375 716.84600830078125 715.6090087890625 716.126220703125 712.52197265625 707.33001708984375 703.39373779296875 701.4952392578125 701.26776123046875 701.27227783203125 701.34375
949.0999755859375 948.6602783203125 947.906982421875 947.71099853515625 947.68450927734375 946.70574951171875 946.490966796875 946.8062744140625 947.62823486328125 947.990478515625 948.22998046875 948.01251220703125 947.9012451171875 948.0980224609375 948.87799072265625 948.947021484375 948.58148193359375 948.6414794921875 947.90924072265625 947.958984375 948.48675537109375 948.9957275390625 949.12451171875 948.78948974609375 948.58648681640625 948.302001953125 948.08453369140625 947.9334716796875 948.22802734375 947.7752685546875 946.99249267578125 946.8612060546875 946.61798095703125 946.667236328125 945.5697021484375 945.39453125 944.384521484375 943.447265625 942.803466796875 941.20050048828125 941.000244140625 943.35601806640625 943.99072265625 943.5364990234375 942.0830078125 940.32122802734375 939.229248046875 938.22900390625 937.800537109375 937.87200927734375 936.6195068359375 934.76849365234375 932.4520263671875 932.051025390625 932.24176025390625 931.50823974609375 929.35748291015625 926.63671875 926.65301513671875 927.019775390625 925.748779296875 923.011962890625 922.2222900390625 921.8837890625 919.72100830078125 919.563720703125 918.4990234375 916.7342529296875 911.99951171875 906.2855224609375 903.08050537109375 903.062744140625 906.4320068359375 909.43524169921875 908.8797607421875 906.541015625 903.374755859375 903.78497314453125 902.5205078125 898.26300048828125 893.428466796875 888.80548095703125 887.4425048828125 888.7139892578125 889.55078125 891.1090087890625 893.76873779296875 890.968505859375 886.35101318359375 883.01324462890625 875.7664794921875 868.20947265625 856.8485107421875 847.60699462890625 839.60400390625 831.9517822265625 824.592529296875 818.29296875 812.8115234375 806.12298583984375 797.0419921875 792.4537353515625 787.8177490234375 787.5205078125 790.1734619140625 796.782470703125 805.88299560546875 811.89373779296875 816.260986328125 816.1497802734375 812.188720703125 808.7135009765625 805.3267822265625 801.7130126953125 796.3797607421875 790.7340087890625 786.063232421875 786.67449951171875 789.71502685546875 792.10028076171875 792.1240234375 795.9945068359375 801.7650146484375 798.8392333984375 795.667724609375 791.3695068359375 785.01751708984375 779.823486328125 773.28125 767.45025634765625 763.5787353515625 760.9227294921875 758.76300048828125 757.2042236328125 756.344482421875 754.75201416015625 754.9324951171875 753.26953125 750.96075439453125 747.7745361328125 744.77301025390625 742.55426025390625 740.14801025390625 737.9232177734375 736.44647216796875 734.86773681640625 733.3604736328125 732.0615234375 730.864990234375 729.39300537109375 727.7332763671875 725.58251953125 723.926025390625 722.4859619140625 721.29998779296875 719.97601318359375 718.770263671875 717.5032958984375 716.76751708984375 714.8074951171875 713.01275634765625 713.15673828125 713.79949951171875 711.96826171875 707.583740234375 703.9375 701.38323974609375 697.6614990234375 697.7020263671875
947.32501220703125 947.134033203125 946.7950439453125 945.77398681640625 945.5047607421875 944.94921875 944.47625732421875 944.95074462890625 945.79150390625 945.990234375 946.28076171875 946.06402587890625 945.86773681640625 946.28948974609375 947.011474609375 947.4439697265625 946.52972412109375 946.7347412109375 946.05450439453125 945.80950927734375 946.21551513671875 946.3485107421875 946.46173095703125 946.00750732421875 946.0977783203125 946.1552734375 945.85772705078125 945.7330322265625 946.06048583984375 945.8372802734375 944.6417236328125 943.6617431640625 943.4517822265625 943.33099365234375 943.4697265625 942.97100830078125 942.65826416015625 941.54327392578125 940.2874755859375 938.18975830078125 939.66650390625 941.7979736328125 941.98175048828125 941.6407470703125 941.01324462890625 939.90576171875 937.8857421875 935.876220703125 934.91650390625 934.8814697265625 934.228515625 933.46173095703125 930.70074462890625 928.91900634765625 927.999267578125 927.19500732421875 926.687255859375 924.20526123046875 922.291259765625 923.27777099609375 923.24798583984375 920.803466796875 918.46722412109375 918.45550537109375 916.84674072265625 915.4737548828125 914.865966796875 913.9580078125 910.5557861328125 905.646728515625 901.1209716796875 899.43377685546875 902.16925048828125 905.42950439453125 905.771728515625 904.134521484375 900.48822021484375 899.75347900390625 899.74798583984375 897.739501953125 893.24700927734375 888.5419921875 884.81298828125 885.97650146484375 886.48797607421875 887.42376708984375 888.87249755859375 886.321044921875 881.22198486328125 876.67474365234375 871.59527587890625 864.60174560546875 858.19451904296875 850.3212890625 836.6197509765625 828.41473388671875 820.7669677734375 814.12451171875 808.0780029296875 801.1044921875 790.37847900390625 787.26824951171875 786.2139892578125 784.821533203125 785.78375244140625 792.41375732421875 801.6767578125 806.594970703125 810.56976318359375 810.6397705078125 807.52325439453125 802.593017578125 799.3037109375 795.81475830078125 790.88299560546875 785.8282470703125 780.90924072265625 780.7509765625 783.551513671875 786.5274658203125 788.25775146484375 788.6090087890625 789.8470458984375 787.20648193359375 784.63848876953125 781.7960205078125 777.09503173828125 771.144287109375 766.93499755859375 765.02923583984375 761.5592041015625 756.2225341796875 752.9317626953125 751.322998046875 753.93548583984375 753.4945068359375 751.58074951171875 749.228759765625 747.42950439453125 745.8134765625 743.6295166015625 739.3707275390625 736.38348388671875 733.45751953125 730.67449951171875 729.54296875 728.5267333984375 727.77752685546875 727.166015625 726.4119873046875 725.470703125 724.8134765625 724.1820068359375 722.6614990234375 721.0262451171875 719.3367919921875 717.7567138671875 716.28125 715.6287841796875 713.42474365234375 712.49200439453125 712.60699462890625 712.6712646484375 712.8077392578125 710.4337158203125 707.06024169921875 702.86376953125 699.4520263671875 694.83526611328125
945.6414794921875 945.8697509765625 946.7974853515625 944.876708984375 943.759765625 943.65899658203125 943.51727294921875 943.8377685546875 944.46026611328125 944.41552734375 943.99774169921875 944.156494140625 943.915771484375 944.282470703125 944.9737548828125 945.936279296875 945.3577880859375 944.7672119140625 944.4522705078125 943.88702392578125 944.0350341796875 944.510498046875 944.2037353515625 943.686767578125 944.1259765625 944.0142822265625 943.6259765625 943.9482421875 944.0997314453125 943.5662841796875 942.897216796875 942.4697265625 942.1080322265625 941.95648193359375 941.478759765625 940.83648681640625 941.01922607421875 939.208984375 936.67626953125 935.6187744140625 938.3079833984375 939.6669921875 939.50299072265625 939.28424072265625 938.7352294921875 938.3477783203125 937.31121826171875 935.52825927734375 932.7130126953125 931.9134521484375 931.64874267578125 931.32452392578125 929.49200439453125 927.06622314453125 923.92974853515625 922.8797607421875 922.448974609375 921.125244140625 918.6090087890625 919.34625244140625 919.95849609375 917.915771484375 914.8330078125 913.75927734375 912.76220703125 912.26800537109375 911.82550048828125 910.9617919921875 908.21728515625 903.7015380859375 899.646240234375 896.8170166015625 898.39373779296875 901.65899658203125 901.864013671875 900.4952392578125 897.3212890625 895.25177001953125 895.66998291015625 894.4222412109375 891.03326416015625 886.53875732421875 882.3270263671875 883.42999267578125 883.84228515625 883.7349853515625 882.15924072265625 879.6619873046875 875.71173095703125 871.6669921875 867.50775146484375 863.13897705078125 858.5400390625 846.9444580078125 832.40802001953125 824.030517578125 817.01251220703125 810.66424560546875 804.8907470703125 798.43701171875 788.970703125 786.4425048828125 785.406005859375 782.626708984375 782.31500244140625 788.69451904296875 796.269287109375 800.1707763671875 803.7412109375 805.75152587890625 803.2127685546875 797.20550537109375 793.76953125 789.70574951171875 785.0572509765625 780.66925048828125 775.8189697265625 774.353759765625 776.59527587890625 779.812744140625 783.81378173828125 784.58551025390625 781.5574951171875 779.5872802734375 776.3074951171875 773.39501953125 771.260498046875 768.2962646484375 762.687255859375 759.865966796875 755.63153076171875 751.0040283203125 747.84503173828125 745.63275146484375 748.2030029296875 751.30999755859375 750.13427734375 747.27777099609375 745.1385498046875 744.1915283203125 739.24774169921875 734.8275146484375 732.07525634765625 729.05426025390625 726.0350341796875 725.50750732421875 725.2977294921875 725.03277587890625 724.8377685546875 724.17401123046875 723.751953125 723.20574951171875 722.144775390625 720.813232421875 719.5157470703125 718.12548828125 716.78448486328125 715.4012451171875 713.9412841796875 712.1297607421875 711.6739501953125 712.0087890625 712.5877685546875 711.8709716796875 708.26171875 707.49853515625 706.041748046875 701.03997802734375 696.33203125
944.0037841796875 943.65447998046875 944.05902099609375 942.45574951171875 942.030517578125 942.13726806640625 942.0567626953125 941.802978515625 941.9954833984375 942.41473388671875 942.3487548828125 942.29998779296875 942.3604736328125 942.51849365234375 943.43798828125 944.28948974609375 943.7037353515625 943.06048583984375 942.5562744140625 942.136474609375 942.0679931640625 942.52197265625 942.354248046875 941.60675048828125 941.7769775390625 941.9854736328125 941.415283203125 942.01727294921875 941.759765625 941.40374755859375 940.6207275390625 939.896484375 939.605712890625 939.3192138671875 939.25201416015625 938.22674560546875 939.0247802734375 937.0377197265625 933.6405029296875 933.719482421875 936.23046875 936.95477294921875 936.55548095703125 936.719970703125 935.6822509765625 935.0264892578125 934.3487548828125 933.478515625 931.16650390625 928.8079833984375 928.7442626953125 928.56396484375 928.2919921875 926.7452392578125 923.06573486328125 919.65924072265625 917.895751953125 917.12750244140625 915.739990234375 915.04376220703125 915.8375244140625 914.998779296875 911.343505859375 908.27197265625 907.61822509765625 908.24151611328125 908.61175537109375 908.791259765625 906.50146484375 901.59527587890625 897.06573486328125 894.0789794921875 894.875 897.99871826171875 897.48699951171875 895.5770263671875 893.04345703125 891.9224853515625 892.113037109375 891.0245361328125 887.71826171875 884.14227294921875 879.96826171875 880.19873046875 879.49151611328125 877.5462646484375 876.0875244140625 873.0772705078125 869.7552490234375 868.06024169921875 864.323974609375 858.60076904296875 848.59173583984375 836.6724853515625 826.7542724609375 819.8690185546875 812.95751953125 806.65850830078125 801.2635498046875 796.1077880859375 789.115478515625 785.70074462890625 783.32421875 782.28302001953125 779.03399658203125 782.907470703125 789.4737548828125 792.6405029296875 796.6712646484375 798.989501953125 798.427734375 792.28826904296875 788.76849365234375 784.2330322265625 779.4542236328125 775.1094970703125 769.75750732421875 769.4124755859375 769.50799560546875 773.571044921875 779.1395263671875 783.5789794921875 785.3662109375 784.42596435546875 779.91400146484375 774.76025390625 770.552490234375 769.2037353515625 761.1187744140625 752.85748291015625 750.490234375 746.292236328125 743.90576171875 741.76947021484375 741.7142333984375 745.5059814453125 748.532470703125 745.63299560546875 744.11224365234375 743.0052490234375 738.7442626953125 733.86328125 729.50872802734375 725.85577392578125 723.3084716796875 722.9227294921875 724.405029296875 724.7705078125 721.7857666015625 719.21099853515625 718.84100341796875 718.2769775390625 717.4320068359375 716.8690185546875 715.7650146484375 714.90478515625 714.1004638671875 712.634521484375 712.2752685546875 711.18499755859375 709.949462890625 709.20599365234375 710.499755859375 706.821533203125 706.2760009765625 705.71722412109375 704.4215087890625 701.93426513671875 697.07073974609375
942.2957763671875 941.77978515625 941.23779296875 940.79254150390625 940.51373291015625 940.2247314453125 940.12872314453125 939.999267578125 940.25250244140625 940.53424072265625 940.5625 940.407470703125 940.5772705078125 940.927734375 941.78997802734375 942.4122314453125 942.00201416015625 941.665283203125 941.03826904296875 940.53271484375 940.14300537109375 940.3294677734375 940.16998291015625 939.9222412109375 939.74200439453125 940.22198486328125 939.6827392578125 939.93548583984375 939.5985107421875 939.36376953125 938.677001953125 937.81500244140625 937.30975341796875 936.8497314453125 937.0989990234375 936.0570068359375 936.6080322265625 935.26251220703125 931.21148681640625 931.58251953125 933.8995361328125 934.2022705078125 933.7340087890625 933.2974853515625 932.7435302734375 932.0419921875 931.3804931640625 930.5687255859375 929.49224853515625 926.958251953125 926.0467529296875 926.20574951171875 925.4415283203125 924.697265625 923.11474609375 920.05126953125 916.14300537109375 912.63226318359375 911.6517333984375 910.67974853515625 911.71673583984375 911.261474609375 908.17425537109375 904.7662353515625 903.75848388671875 904.363037109375 906.4332275390625 906.521240234375 904.8084716796875 899.9794921875 894.9427490234375 892.07373046875 891.20050048828125 894.5147705078125 893.44598388671875 891.4210205078125 889.896240234375 888.20599365234375 888.6312255859375 886.82049560546875 884.3377685546875 881.8955078125 877.4862060546875 875.69598388671875 873.8232421875 873.2447509765625 872.67449951171875 869.45751953125 865.36773681640625 861.793212890625 857.394775390625 851.405029296875 839.9647216796875 830.9520263671875 822.02801513671875 815.2537841796875 809.81103515625 803.6414794921875 797.15277099609375 791.33050537109375 784.91900634765625 779.1297607421875 776.59698486328125 778.4224853515625 774.0775146484375 776.87750244140625 781.08050537109375 785.40423583984375 789.35101318359375 791.9002685546875 794.02374267578125 789.1925048828125 784.2230224609375 778.8709716796875 774.3084716796875 769.5150146484375 763.78973388671875 764.885009765625 763.1717529296875 767.2080078125 772.6087646484375 776.09228515625 778.6395263671875 777.8697509765625 773.9732666015625 768.35400390625 762.509033203125 763.59625244140625 759.3292236328125 751.031494140625 744.59051513671875 742.18450927734375 740.13677978515625 738.8115234375 736.988525390625 740.6824951171875 744.73602294921875 745.02496337890625 743.97174072265625 740.5892333984375 736.30975341796875 732.427734375 726.57470703125 723.20074462890625 720.76776123046875 720.52252197265625 720.8642578125 720.36700439453125 716.5582275390625 715.8817138671875 715.90924072265625 715.3695068359375 713.6815185546875 711.58251953125 710.66552734375 710.5152587890625 710.1512451171875 709.1087646484375 709.54974365234375 708.80322265625 708.3699951171875 707.95050048828125 706.7864990234375 705.64923095703125 704.56976318359375 703.520751953125 702.1614990234375 700.66326904296875 697.84326171875
940.5977783203125 940.22100830078125 939.76422119140625 939.16748046875 938.6199951171875 938.45703125 938.218017578125 937.9794921875 938.1495361328125 938.345458984375 938.864501953125 938.78448486328125 938.96826171875 939.04449462890625 939.98797607421875 940.6527099609375 940.4312744140625 940.0057373046875 939.63751220703125 938.77349853515625 938.4537353515625 938.25201416015625 938.1925048828125 937.9739990234375 937.9312744140625 938.1312255859375 937.843994140625 937.88848876953125 937.54974365234375 937.6925048828125 936.93402099609375 935.741455078125 935.176513671875 934.5784912109375 934.8294677734375 934.1865234375 933.82275390625 933.51275634765625 929.50872802734375 928.50775146484375 930.84173583984375 931.61328125 931.000732421875 930.3797607421875 929.92376708984375 929.17926025390625 928.3990478515625 927.59600830078125 926.729248046875 924.7447509765625 922.489013671875 923.0164794921875 922.65771484375 921.77301025390625 920.4072265625 919.084228515625 916.313720703125 912.18951416015625 907.5469970703125 906.478759765625 906.3692626953125 906.85748291015625 904.95147705078125 901.66552734375 900.77850341796875 901.1085205078125 903.90374755859375 904.490234375 902.95977783203125 898.30322265625 893.094970703125 889.59722900390625 888.19122314453125 890.8592529296875 889.9739990234375 888.2147216796875 886.2659912109375 884.541015625 884.7637939453125 885.3189697265625 881.832275390625 878.3504638671875 875.52777099609375 873.8475341796875 872.3489990234375 871.239990234375 870.23101806640625 866.729736328125 860.87774658203125 856.6427001953125 850.729736328125 842.63250732421875 833.8892822265625 826.02374267578125 818.2122802734375 811.2017822265625 805.33074951171875 800.031005859375 793.6407470703125 785.9305419921875 777.802001953125 772.71649169921875 770.52801513671875 771.8189697265625 770.04473876953125 769.13275146484375 774.9825439453125 778.5887451171875 782.12176513671875 785.55474853515625 788.50701904296875 786.5872802734375 782.56298828125 775.25177001953125 769.3067626953125 764.79376220703125 758.76202392578125 759.76751708984375 758.28955078125 760.41949462890625 765.64923095703125 768.8489990234375 771.46002197265625 770.9110107421875 767.9832763671875 762.6199951171875 755.20477294921875 754.1202392578125 754.10723876953125 748.468017578125 742.061767578125 738.16748046875 736.1002197265625 735.34552001953125 732.95574951171875 735.9620361328125 739.4227294921875 741.5787353515625 740.83599853515625 735.80902099609375 730.98297119140625 726.85223388671875 723.051513671875 720.334228515625 718.44476318359375 718.3607177734375 717.5999755859375 716.1627197265625 715.009033203125 714.186279296875 712.84698486328125 710.41552734375 708.84625244140625 707.740234375 707.69775390625 707.9007568359375 707.4842529296875 707.42498779296875 706.896728515625 706.10302734375 706.2872314453125 705.3375244140625 704.6099853515625 704.26751708984375 703.6820068359375 702.63427734375 701.197998046875 700.1290283203125 697.49871826171875
939.14752197265625 938.6600341796875 938.0567626953125 937.61773681640625 937.1082763671875 936.686279296875 936.63671875 936.9527587890625 937.1820068359375 937.1884765625 937.36376953125 937.604248046875 937.375 937.38250732421875 938.3900146484375 938.968994140625 938.96728515625 938.23626708984375 937.88751220703125 937.0947265625 936.92498779296875 936.44500732421875 936.3599853515625 936.17376708984375 936.0009765625 936.39923095703125 936.05523681640625 935.782470703125 935.28424072265625 935.78875732421875 935.03448486328125 933.82525634765625 933.000244140625 932.4002685546875 932.5792236328125 932.31597900390625 931.3594970703125 931.708740234375 928.8997802734375 926.261962890625 927.74072265625 928.82525634765625 928.4052734375 927.8067626953125 927.21148681640625 926.3587646484375 925.499755859375 924.82000732421875 923.88226318359375 922.071533203125 918.8380126953125 919.2294921875 919.21002197265625 918.314208984375 917.40301513671875 916.23150634765625 914.31298828125 910.677490234375 905.72625732421875 903.27398681640625 902.07952880859375 902.1424560546875 901.615966796875 898.914794921875 897.94573974609375 898.345703125 900.9952392578125 903.06475830078125 901.3377685546875 896.7637939453125 891.39349365234375 887.84722900390625 885.67901611328125 886.760986328125 886.728515625 885.280029296875 883.12548828125 881.32000732421875 882.12774658203125 881.7862548828125 878.427490234375 875.3497314453125 873.96875 872.2969970703125 871.2257080078125 869.18951416015625 868.124755859375 861.958740234375 855.61474609375 851.0684814453125 845.96722412109375 838.67877197265625 830.77374267578125 823.0107421875 815.4117431640625 808.5 801.5419921875 794.99749755859375 789.5587158203125 783.0830078125 774.7984619140625 768.50146484375 765.12353515625 764.332275390625 764.852783203125 763.4412841796875 769.2550048828125 772.353271484375 776.0987548828125 779.061279296875 783.126708984375 783.321533203125 781.89324951171875 774.71002197265625 767.58251953125 761.3792724609375 755.436767578125 755.20074462890625 754.0682373046875 753.6732177734375 759.33148193359375 762.06024169921875 764.0247802734375 764.1402587890625 762.415283203125 757.60247802734375 751.1927490234375 746.26251220703125 746.9119873046875 744.1602783203125 738.85650634765625 735.19921875 732.021728515625 730.780029296875 729.77276611328125 731.208984375 736.84521484375 736.427001953125 736.18927001953125 731.91650390625 726.48773193359375 720.63250732421875 717.73748779296875 717.2869873046875 717.05950927734375 716.4415283203125 715.0360107421875 713.739990234375 712.72125244140625 711.08001708984375 708.291748046875 707.05023193359375 706.925048828125 706.2197265625 705.54998779296875 705.58349609375 705.2352294921875 703.92724609375 703.9052734375 704.23150634765625 703.271728515625 701.8297119140625 700.6090087890625 700.114990234375 700.4945068359375 700.77978515625 700.34674072265625 698.8162841796875 696.94500732421875
937.3890380859375 936.94873046875 936.42999267578125 935.9842529296875 935.7327880859375 935.36248779296875 935.154541015625 935.26300048828125 935.228271484375 935.04547119140625 935.468505859375 935.5782470703125 935.79901123046875 936.12225341796875 936.5164794921875 937.55902099609375 937.35400390625 936.8372802734375 936.1317138671875 935.60577392578125 935.0694580078125 934.73199462890625 934.532470703125 934.32672119140625 934.3349609375 934.000732421875 934.2674560546875 933.87646484375 933.2955322265625 933.65277099609375 932.9744873046875 931.8284912109375 930.8914794921875 930.65948486328125 930.42999267578125 930.2249755859375 928.97601318359375 929.6292724609375 927.85247802734375 924.13671875 924.1712646484375 926.0670166015625 926.00701904296875 925.4952392578125 924.7257080078125 923.65826416015625 922.655517578125 921.969970703125 921.001220703125 919.384765625 916.36572265625 915.60626220703125 916.3819580078125 915.834716796875 914.93072509765625 913.6910400390625 912.06201171875 908.28973388671875 903.13720703125 900.4642333984375 899.34002685546875 898.6629638671875 898.416015625 896.3072509765625 895.0157470703125 895.7650146484375 898.04901123046875 901.0577392578125 899.5350341796875 895.75 890.23126220703125 886.40399169921875 882.9310302734375 883.1934814453125 883.25823974609375 882.42449951171875 880.3082275390625 877.1202392578125 876.7149658203125 875.4002685546875 874.18896484375 872.79876708984375 871.8544921875 870.34149169921875 869.1617431640625 868.021240234375 866.80450439453125 863.8082275390625 857.27398681640625 850.12652587890625 842.6085205078125 835.66925048828125 829.2850341796875 819.9537353515625 812.510498046875 804.13299560546875 797.188232421875 790.73773193359375 784.48651123046875 779.750732421875 773.08123779296875 765.9835205078125 761.91851806640625 758.73675537109375 758.66998291015625 760.04473876953125 762.7550048828125 766.85150146484375 770.9002685546875 773.30572509765625 777.448486328125 779.8447265625 779.2952880859375 772.78021240234375 766.35699462890625 759.4005126953125 751.97674560546875 750.603759765625 749.73150634765625 749.594970703125 753.31597900390625 755.5784912109375 756.8790283203125 757.835205078125 755.96673583984375 752.48175048828125 748.1192626953125 740.95526123046875 739.19921875 738.3905029296875 733.8292236328125 729.78076171875 729.363525390625 727.57928466796875 726.1820068359375 726.789794921875 731.906982421875 731.02349853515625 731.60650634765625 727.0987548828125 722.7257080078125 717.97052001953125 714.5252685546875 714.34649658203125 713.865966796875 712.98046875 712.228759765625 711.47100830078125 709.93603515625 707.32073974609375 706.14752197265625 705.322998046875 704.40399169921875 703.812255859375 703.571533203125 703.06048583984375 702.5152587890625 701.8587646484375 701.88623046875 701.46600341796875 699.3502197265625 698.072998046875 697.6107177734375 697.18426513671875 697.06622314453125 696.96697998046875 696.7017822265625 696.36151123046875 695.9202880859375
935.6180419921875 935.3270263671875 934.97998046875 934.68499755859375 934.4625244140625 934.16949462890625 933.9267578125 933.771484375 933.83673095703125 933.33026123046875 933.2362060546875 933.81396484375 934.0477294921875 934.40472412109375 935.1302490234375 935.69677734375 935.72198486328125 935.0899658203125 934.57373046875 933.98046875 933.47998046875 932.92327880859375 932.6607666015625 932.28900146484375 932.052001953125 931.7454833984375 932.33648681640625 931.5274658203125 931.2867431640625 931.374755859375 930.80023193359375 929.7919921875 928.822998046875 928.6292724609375 928.64599609375 928.02099609375 926.84197998046875 927.178466796875 925.61151123046875 922.84576416015625 921.459228515625 923.15399169921875 923.40802001953125 922.74774169921875 922.05450439453125 920.927490234375 920.26873779296875 919.249267578125 918.396484375 917.32098388671875 914.42950439453125 912.698486328125 913.52197265625 913.5462646484375 912.8597412109375 911.73223876953125 910.33050537109375 905.85797119140625 900.646728515625 897.65277099609375 897.04248046875 896.06622314453125 895.28277587890625 893.85748291015625 892.7342529296875 893.19024658203125 894.81549072265625 898.260498046875 898.34271240234375 895.322021484375 890.0205078125 885.86151123046875 882.13702392578125 878.9234619140625 879.2869873046875 878.39422607421875 876.4207763671875 872.41375732421875 869.90576171875 870.20172119140625 870.5 870.52972412109375 869.790283203125 868.3284912109375 866.81524658203125 866.10723876953125 865.05401611328125 863.78302001953125 858.511962890625 851.82073974609375 844.332763671875 836.2564697265625 827.395751953125 817.9749755859375 812.04998779296875 806.2769775390625 798.4677734375 790.907470703125 783.25726318359375 776.47625732421875 770.27374267578125 763.9022216796875 759.08648681640625 755.24853515625 752.8914794921875 755.2655029296875 758.248291015625 762.56549072265625 765.5634765625 767.634765625 772.17578125 776.8037109375 775.89373779296875 770.5042724609375 763.58203125 757.22625732421875 750.76123046875 745.8067626953125 744.23248291015625 743.4959716796875 746.6505126953125 749.1312255859375 750.09649658203125 752.06072998046875 748.67022705078125 746.66876220703125 742.87774658203125 738.176513671875 732.488037109375 731.87548828125 727.3502197265625 725.24273681640625 725.7564697265625 724.57501220703125 723.1002197265625 722.593994140625 726.44500732421875 724.66796875 724.46728515625 722.50372314453125 718.2177734375 714.1710205078125 711.6734619140625 710.99200439453125 710.7745361328125 710.3917236328125 709.7244873046875 708.4332275390625 706.13623046875 704.6107177734375 703.92401123046875 702.5987548828125 702.979248046875 702.79327392578125 701.20025634765625 700.84124755859375 699.78948974609375 699.886474609375 699.249267578125 698.374755859375 696.958984375 696.3287353515625 696.29351806640625 694.926513671875 694.8909912109375 694.5572509765625 693.76177978515625 692.9542236328125 693.44598388671875
933.78302001953125 933.834716796875 933.625244140625 933.1572265625 932.9097900390625 932.624267578125 932.5762939453125 932.3895263671875 932.10302734375 931.9949951171875 931.260986328125 932.44049072265625 932.50726318359375 932.573486328125 933.01177978515625 933.89776611328125 933.7239990234375 933.43023681640625 933.07025146484375 932.63824462890625 931.91473388671875 931.4652099609375 930.94097900390625 930.5169677734375 930.17999267578125 929.8807373046875 930.2752685546875 929.12322998046875 928.96600341796875 929.09552001953125 928.37225341796875 927.5689697265625 926.84674072265625 926.84552001953125 926.76751708984375 926.3082275390625 924.55401611328125 924.30126953125 923.145263671875 920.988037109375 919.1717529296875 920.34027099609375 921.0169677734375 920.311767578125 919.64825439453125 918.81597900390625 917.76849365234375 916.9320068359375 915.6802978515625 914.24346923828125 912.396240234375 910.34722900390625 910.468994140625 911.3800048828125 911.1285400390625 910.0472412109375 908.55401611328125 904.54449462890625 899.19500732421875 895.457275390625 894.9005126953125 893.52923583984375 892.88671875 891.4644775390625 890.3367919921875 890.76220703125 892.1300048828125 895.2232666015625 896.89801025390625 893.852294921875 890.24774169921875 885.8447265625 881.34521484375 875.9830322265625 871.906982421875 870.894775390625 869.3282470703125 867.57501220703125 866.541748046875 866.61724853515625 868.7342529296875 869.7337646484375 867.72174072265625 866.1392822265625 864.9207763671875 863.99072265625 863.04949951171875 859.1934814453125 853.980224609375 848.2142333984375 841.63897705078125 834.59173583984375 823.67724609375 815.34149169921875 809.520751953125 803.53326416015625 796.75274658203125 789.60247802734375 783.0274658203125 776.0152587890625 771.65924072265625 764.23974609375 757.20599365234375 752.719482421875 749.24273681640625 750.4327392578125 753.8712158203125 757.989990234375 759.69775390625 763.01348876953125 768.50701904296875 774.72900390625 772.1832275390625 768.56903076171875 762.88427734375 756.81451416015625 749.9420166015625 744.842529296875 741.0377197265625 737.8790283203125 740.7559814453125 742.44024658203125 743.98199462890625 745.134521484375 741.876708984375 739.84149169921875 736.4627685546875 733.312255859375 728.560546875 726.22650146484375 722.64971923828125 722.0367431640625 722.145263671875 721.79901123046875 718.9532470703125 719.1474609375 721.8427734375 719.05499267578125 715.7025146484375 715.3905029296875 713.5679931640625 710.3070068359375 708.0372314453125 707.95098876953125 707.78253173828125 707.16973876953125 706.7449951171875 706.03875732421875 704.678466796875 703.36126708984375 702.55877685546875 701.41900634765625 700.542236328125 698.7750244140625 698.13323974609375 698.0252685546875 698.0272216796875 697.74652099609375 697.0042724609375 695.73724365234375 695.572509765625 695.17926025390625 693.6650390625 692.9095458984375 692.52899169921875 692.00799560546875 692.63275146484375 691.21173095703125 691.69476318359375
932.59722900390625 932.33648681640625 932.082763671875 931.7235107421875 931.4110107421875 931.26849365234375 931.19525146484375 931.2435302734375 930.63275146484375 930.84149169921875 930.51702880859375 930.15423583984375 930.84124755859375 931.0537109375 931.20025634765625 932.17376708984375 932.2462158203125 931.94073486328125 931.457763671875 931.06549072265625 930.06500244140625 930.00347900390625 929.207763671875 928.551025390625 928.22149658203125 928.08721923828125 927.77001953125 927.396484375 927.010498046875 926.72125244140625 926.3187255859375 925.64501953125 924.80926513671875 924.92926025390625 924.616455078125 923.8525390625 922.572265625 921.6500244140625 920.86273193359375 919.50347900390625 917.185791015625 917.614013671875 918.38848876953125 917.74176025390625 917.32452392578125 916.59521484375 915.0772705078125 913.80902099609375 912.7459716796875 911.989990234375 910.5577392578125 907.5872802734375 907.2559814453125 908.1104736328125 908.61224365234375 907.94622802734375 906.81298828125 903.2554931640625 898.06396484375 893.70977783203125 892.96527099609375 891.188720703125 890.40777587890625 889.35400390625 888.0054931640625 888.19525146484375 889.271240234375 891.84149169921875 894.23101806640625 892.251220703125 889.83245849609375 885.03375244140625 879.810546875 874.00250244140625 868.57476806640625 865.2965087890625 863.79974365234375 863.5009765625 862.9544677734375 864.303955078125 867.2559814453125 868.52099609375 866.27252197265625 863.77197265625 862.8702392578125 861.666015625 860.74273681640625 858.93701171875 855.02398681640625 849.80548095703125 843.43975830078125 835.1212158203125 826.17401123046875 817.40948486328125 808.92047119140625 801.00274658203125 794.21624755859375 786.9525146484375 778.88726806640625 772.5870361328125 768.28851318359375 763.93548583984375 755.9832763671875 750.251953125 747.4305419921875 745.9639892578125 749.22998046875 752.57025146484375 755.10101318359375 759.47650146484375 765.3372802734375 771.72021484375 769.5465087890625 767.000732421875 760.561767578125 754.70947265625 748.969482421875 743.0155029296875 739.60198974609375 735.4384765625 734.0889892578125 735.4735107421875 737.510498046875 737.25799560546875 735.167724609375 732.3499755859375 730.10198974609375 727.02850341796875 724.3270263671875 722.0777587890625 720.34600830078125 719.2952880859375 718.8387451171875 718.7984619140625 717.634521484375 716.95599365234375 716.64453125 712.94000244140625 710.59149169921875 710.42999267578125 709.76373291015625 706.75 705.14404296875 704.87200927734375 705.04376220703125 704.61724853515625 704.50152587890625 704.4105224609375 703.061767578125 701.42474365234375 698.11175537109375 696.0477294921875 696.0892333984375 695.6727294921875 695.71600341796875 694.9427490234375 693.76300048828125 694.1812744140625 693.947021484375 693.92449951171875 694.134765625 693.197998046875 691.947265625 690.271240234375 689.8232421875 689.88372802734375 689.979736328125 689.68499755859375 689.4124755859375
931.24798583984375 931.12646484375 930.69775390625 930.3184814453125 930.1712646484375 929.82373046875 929.9132080078125 929.95050048828125 929.44097900390625 929.41351318359375 929.667236328125 929.71697998046875 929.5565185546875 929.55523681640625 929.771240234375 930.3074951171875 930.4794921875 930.11724853515625 929.8394775390625 929.699951171875 929.1182861328125 928.0484619140625 927.58197021484375 926.9005126953125 926.6827392578125 926.5037841796875 926.04248046875 925.406982421875 925.3695068359375 924.69873046875 924.20001220703125 923.48724365234375 923.09326171875 922.7337646484375 922.36297607421875 921.88525390625 921.13623046875 919.26776123046875 918.5465087890625 917.67022705078125 915.572021484375 915.22998046875 915.74322509765625 915.88397216796875 914.7257080078125 913.5732421875 912.5999755859375 911.76324462890625 910.9072265625 910.01800537109375 908.59552001953125 905.80902099609375 904.666748046875 905.2984619140625 906.8275146484375 906.323974609375 905.14324951171875 902.16400146484375 896.62750244140625 892.23675537109375 890.50347900390625 889.66827392578125 887.6807861328125 886.8795166015625 885.67474365234375 884.72027587890625 885.90423583984375 888.03125 889.33624267578125 888.80950927734375 887.38226318359375 882.727783203125 877.54376220703125 873.13427734375 869.10546875 865.063720703125 861.26776123046875 859.666748046875 859.63201904296875 862.51300048828125 864.21124267578125 866.26373291015625 865.31597900390625 862.09747314453125 860.436279296875 859.22900390625 858.8134765625 856.54901123046875 852.0670166015625 850.23876953125 844.4945068359375 836.30047607421875 827.2862548828125 818.37103271484375 810.08123779296875 802.675537109375 795.470458984375 788.33648681640625 781.13775634765625 773.3582763671875 763.5557861328125 758.7132568359375 753.5252685546875 747.58251953125 744.8187255859375 742.364013671875 745.12872314453125 747.38372802734375 751.54150390625 756.2562255859375 761.58148193359375 767.22802734375 770.3330078125 765.19976806640625 762.46722412109375 758.0059814453125 751.50177001953125 744.39398193359375 737.998779296875 734.1285400390625 731.57275390625 729.67926025390625 729.39276123046875 728.937744140625 727.24798583984375 725.27978515625 723.45672607421875 720.957275390625 719.4112548828125 719.1524658203125 717.39276123046875 717.11199951171875 715.9937744140625 715.593017578125 714.54296875 713.63751220703125 711.7242431640625 708.97076416015625 708.2352294921875 707.99652099609375 705.68524169921875 703.8397216796875 702.83099365234375 702.531005859375 701.719970703125 701.8580322265625 702.833984375 702.9537353515625 700.1727294921875 698.7445068359375 696.9342041015625 695.6044921875 695.01025390625 694.0355224609375 694.1572265625 693.1510009765625 693.154541015625 693.2869873046875 693.4437255859375 693.4527587890625 692.74822998046875 691.63201904296875 691.05426025390625 689.13873291015625 687.83551025390625 688.5469970703125 688.7120361328125 687.62774658203125 686.93096923828125
929.95672607421875 929.78326416015625 929.44573974609375 928.9952392578125 928.69549560546875 928.52801513671875 928.7080078125 928.447998046875 928.1102294921875 928.073486328125 928.00775146484375 927.94146728515625 927.79400634765625 928.5562744140625 928.363037109375 928.55926513671875 928.68048095703125 928.644287109375 928.26800537109375 928.16473388671875 927.61700439453125 926.833984375 926.20672607421875 925.51251220703125 925.04522705078125 924.73046875 924.062255859375 923.43798828125 923.322998046875 922.75799560546875 922.09552001953125 921.313720703125 921.2774658203125 920.7862548828125 920.41796875 920.04046630859375 919.3394775390625 917.957763671875 916.48150634765625 915.84228515625 914.146728515625 913.0565185546875 913.40447998046875 913.55926513671875 912.9217529296875 912.2392578125 911.3917236328125 910.49822998046875 909.677734375 908.6839599609375 906.58050537109375 903.5147705078125 902.1085205078125 902.188720703125 904.7509765625 904.759765625 903.7080078125 901.52947998046875 896.01849365234375 891.5260009765625 888.000732421875 886.9539794921875 885.46026611328125 883.781494140625 883.052001953125 882.1424560546875 881.60577392578125 882.34051513671875 883.7950439453125 885.258544921875 884.1240234375 883.09649658203125 878.9622802734375 876.0672607421875 872.802490234375 867.67974853515625 862.05926513671875 857.519287109375 857.2254638671875 859.7025146484375 861.3717041015625 863.66851806640625 864.23101806640625 860.76123046875 858.4580078125 856.4727783203125 856.93798828125 856.44775390625 851.4720458984375 846.1875 843.073974609375 835.01300048828125 827.50726318359375 817.62823486328125 809.405029296875 802.311767578125 795.69598388671875 788.8690185546875 781.84698486328125 774.6820068359375 766.7132568359375 758.4375 750.760986328125 745.26947021484375 741.99273681640625 739.355224609375 741.4329833984375 743.39898681640625 747.478271484375 752.177490234375 757.7359619140625 761.5322265625 766.24298095703125 767.2127685546875 760.4375 760.50250244140625 753.885498046875 747.02197265625 739.97747802734375 733.17474365234375 729.28424072265625 727.46197509765625 725.95654296875 724.1932373046875 722.4014892578125 721.060791015625 719.4749755859375 718.05950927734375 716.5474853515625 715.95001220703125 714.32574462890625 712.56427001953125 711.17926025390625 710.62451171875 710.50799560546875 710.355224609375 709.03973388671875 706.81500244140625 705.20648193359375 704.20001220703125 702.17425537109375 700.7669677734375 699.46923828125 699.42376708984375 698.948486328125 698.7242431640625 699.4990234375 698.58050537109375 696.3895263671875 696.6259765625 696.14697265625 695.64300537109375 694.084716796875 692.64349365234375 692.57672119140625 692.9105224609375 692.7025146484375 692.7154541015625 691.0894775390625 689.48779296875 687.968017578125 687.72674560546875 688.6610107421875 686.6187744140625 686.21624755859375 687.5145263671875 686.6612548828125 686.2764892578125 684.7982177734375
928.624755859375 928.4649658203125 928.2237548828125 927.8580322265625 927.43548583984375 927.20928955078125 927.051513671875 926.93621826171875 926.49798583984375 926.6287841796875 926.7027587890625 926.72802734375 927.0789794921875 926.8800048828125 926.81451416015625 926.907470703125 927.0799560546875 927.19677734375 926.853515625 926.676025390625 926.2972412109375 925.624267578125 924.58148193359375 924.09600830078125 923.6099853515625 922.72125244140625 922.5362548828125 922.3427734375 921.44598388671875 920.8900146484375 920.3079833984375 919.61224365234375 919.71148681640625 918.9947509765625 918.53955078125 918.12646484375 917.63250732421875 916.56597900390625 914.82000732421875 913.53375244140625 912.08599853515625 910.30072021484375 911.25225830078125 911.90325927734375 911.60601806640625 911.1337890625 910.53924560546875 909.66650390625 908.85174560546875 908.09051513671875 906.62896728515625 902.09674072265625 900.08026123046875 900.16473388671875 902.375244140625 903.04302978515625 902.188720703125 900.76898193359375 896.5400390625 891.239013671875 886.49627685546875 883.90850830078125 882.59326171875 881.27923583984375 880.42498779296875 879.1715087890625 878.769287109375 879.1412353515625 880.7977294921875 881.94073486328125 881.2232666015625 883.5830078125 882.967041015625 879.126220703125 873.7020263671875 867.8087158203125 862.3184814453125 856.91900634765625 855.62847900390625 856.50823974609375 858.22625732421875 860.19073486328125 860.57550048828125 859.167724609375 856.98876953125 853.355224609375 853.90972900390625 854.55926513671875 852.582275390625 845.9522705078125 839.18475341796875 834.2347412109375 826.92950439453125 820.0274658203125 811.42950439453125 802.6612548828125 793.8497314453125 786.43597412109375 779.55322265625 773.21649169921875 766.4527587890625 758.9212646484375 750.9019775390625 743.68927001953125 739.29425048828125 736.4649658203125 737.8912353515625 739.8189697265625 743.9105224609375 747.99249267578125 752.39398193359375 755.9639892578125 760.87249755859375 764.8062744140625 757.98095703125 757.291748046875 753.06597900390625 747.63775634765625 741.6192626953125 734.97552490234375 728.17352294921875 725.17901611328125 723.34027099609375 721.261474609375 719.8580322265625 718.0667724609375 716.605224609375 715.22222900390625 714.15850830078125 713.22796630859375 712.28076171875 710.87249755859375 710.80999755859375 709.9522705078125 709.67449951171875 709.6510009765625 707.6195068359375 705.3182373046875 704.75372314453125 702.581787109375 700.05126953125 698.4859619140625 697.4517822265625 697.16845703125 696.78826904296875 696.2230224609375 695.2802734375 693.5897216796875 693.54248046875 692.8697509765625 692.89373779296875 692.24853515625 691.7235107421875 691.73223876953125 691.5570068359375 692.0992431640625 690.29400634765625 688.9749755859375 687.3480224609375 685.7125244140625 684.60101318359375 685.63226318359375 683.916015625 682.79150390625 683.7454833984375 684.8162841796875 685.41326904296875 684.32275390625 683.8489990234375
927.2947998046875 927.19073486328125 926.9959716796875 926.50701904296875 926.2327880859375 925.84722900390625 926.05126953125 925.75177001953125 925.2335205078125 925.49249267578125 925.38201904296875 925.5894775390625 924.8585205078125 925.0491943359375 925.2752685546875 925.17974853515625 925.3494873046875 925.51226806640625 925.3919677734375 925.167724609375 924.863525390625 924.165283203125 923.4207763671875 922.98779296875 921.947998046875 921.1080322265625 920.67425537109375 920.6044921875 920.0692138671875 919.2235107421875 918.625732421875 918.01025390625 917.707275390625 917.31298828125 916.605224609375 915.8480224609375 915.0877685546875 914.030029296875 912.6092529296875 911.22100830078125 909.91876220703125 908.22650146484375 908.95623779296875 909.906982421875 910.12225341796875 910.20074462890625 909.761474609375 908.873779296875 907.7227783203125 907.23199462890625 906.0634765625 901.87274169921875 898.6302490234375 898.1102294921875 899.4530029296875 900.64276123046875 900.51751708984375 897.8082275390625 895.31427001953125 889.7254638671875 884.47900390625 882.333984375 881.53948974609375 879.655517578125 877.93975830078125 877.3819580078125 876.14324951171875 877.3060302734375 878.219482421875 878.9752197265625 878.6082763671875 881.14422607421875 883.3714599609375 879.373046875 873.7552490234375 867.7239990234375 862.0870361328125 856.63671875 854.177001953125 853.0272216796875 854.1915283203125 855.95574951171875 856.2459716796875 856.0205078125 854.72650146484375 851.71173095703125 849.1729736328125 850.302734375 850.62200927734375 845.052490234375 837.812744140625 830.01275634765625 825.40277099609375 820.46575927734375 811.635498046875 803.0277099609375 795.207275390625 787.3997802734375 779.6307373046875 771.3175048828125 763.959228515625 756.94476318359375 750.146728515625 744.17425537109375 738.84124755859375 734.82501220703125 734.0107421875 735.9415283203125 738.77972412109375 742.33074951171875 746.30999755859375 750.03076171875 755.15374755859375 759.001220703125 755.90447998046875 753.2662353515625 749.74151611328125 744.60577392578125 739.63427734375 735.71826171875 730.6474609375 724.625732421875 721.96826171875 719.9212646484375 717.875244140625 716.2032470703125 713.5872802734375 710.1724853515625 708.81927490234375 708.05975341796875 706.81072998046875 706.77899169921875 707.6705322265625 707.74774169921875 707.873291015625 707.0145263671875 705.218017578125 704.1519775390625 702.88824462890625 701.00225830078125 698.6214599609375 696.84649658203125 695.72125244140625 695.13226318359375 694.4697265625 694.1290283203125 693.165283203125 692.9527587890625 692.4630126953125 691.7567138671875 690.4525146484375 689.4232177734375 690.1507568359375 690.331298828125 689.59527587890625 688.6190185546875 687.24700927734375 685.5877685546875 684.6094970703125 683.89923095703125 682.1192626953125 681.80401611328125 682.0830078125 681.5877685546875 682.82073974609375 683.2757568359375 683.90673828125 683.99847412109375 681.301025390625
926.2772216796875 925.8017578125 925.8079833984375 925.36676025390625 924.9964599609375 924.594482421875 924.626220703125 924.5615234375 924.0372314453125 924.15325927734375 924.3162841796875 924.4122314453125 924.0400390625 923.93096923828125 923.95703125 923.8289794921875 923.6187744140625 923.76824951171875 923.84552001953125 923.56427001953125 923.375244140625 922.978515625 922.5107421875 921.5982666015625 920.875732421875 919.89776611328125 919.15850830078125 918.6944580078125 918.289794921875 917.42401123046875 916.8592529296875 916.2197265625 916.0164794921875 915.8995361328125 915.44073486328125 915 914.59246826171875 914.0794677734375 913.324462890625 911.688720703125 909.3267822265625 905.9530029296875 904.79052734375 906.1097412109375 907.77301025390625 908.8167724609375 908.65576171875 907.687255859375 905.7459716796875 904.26776123046875 903.21002197265625 901.32275390625 897.5687255859375 896.10577392578125 896.740966796875 898.23974609375 897.209716796875 893.720703125 891.5877685546875 887.9737548828125 884.14849853515625 881.35699462890625 879.6190185546875 877.83551025390625 876.1937255859375 875.292236328125 874.50701904296875 874.71728515625 875.13623046875 875.959228515625 875.5205078125 878.23675537109375 880.469482421875 879.0792236328125 874.040771484375 868.00299072265625 862.24774169921875 857.3857421875 853.1085205078125 847.8902587890625 849.2657470703125 850.353271484375 850.166259765625 850.4530029296875 850.65301513671875 848.4530029296875 845.0777587890625 844.1099853515625 840.0989990234375 837.56597900390625 834.094970703125 828.44622802734375 819.53472900390625 813.73724365234375 807.5367431640625 799.0972900390625 793.01373291015625 786.42425537109375 779.8585205078125 773.07550048828125 766.3134765625 759.1207275390625 750.91851806640625 743.90777587890625 738.5794677734375 732.87646484375 729.81524658203125 731.74200439453125 733.98052978515625 736.7039794921875 739.22601318359375 744.03399658203125 748.832275390625 752.23223876953125 751.33599853515625 749.60498046875 747.45098876953125 741.2362060546875 736.6400146484375 733.76727294921875 731.38775634765625 726.4832763671875 721.10125732421875 718.8594970703125 716.62823486328125 713.1314697265625 710.0419921875 707.19921875 705.88250732421875 705.5582275390625 704.34649658203125 702.52252197265625 702.25701904296875 702.603271484375 703.061767578125 702.57049560546875 701.1082763671875 700.17578125 698.92523193359375 696.35723876953125 695.4747314453125 694.9105224609375 693.76873779296875 693.51922607421875 693.01251220703125 691.4462890625 690.77752685546875 690.39697265625 689.926513671875 689.17572021484375 687.9720458984375 688.1724853515625 688.3055419921875 686.96051025390625 685.54974365234375 684.73046875 683.966796875 683.2550048828125 682.6044921875 681.5250244140625 680.605224609375 680.53826904296875 680.81201171875 680.7552490234375 679.61651611328125 681.7142333984375 682.5772705078125 680.04052734375 678.56298828125
