ncols  303
nrows  32
xllcorner  2105
yllcorner -3390
cellsize  5
nodata_value -9999.00
61.871819 61.129058 60.389902 59.654378 58.922510 58.194322 57.469841 56.749090 56.032094 55.318877 54.609463 53.903878 53.202143 52.504283 51.810322 51.120283 50.434189 49.752063 49.073928 48.399807 47.729721 47.063694 46.401748 45.743904 45.090183 44.440609 43.795201 43.153981 42.516969 41.884188 41.255656 40.631394 40.011422 39.395759 38.784427 38.177443 37.574826 36.976596 36.382772 35.793371 35.208412 34.627912 34.051889 33.480361 32.913344 32.350856 31.792913 31.239531 30.690727 30.146516 29.606914 29.071936 28.541597 28.015911 27.494894 26.978559 26.466920 25.959991 25.457785 24.960315 24.467594 23.979634 23.496447 23.018045 22.544440 22.075643 21.611665 21.152517 20.698208 20.248750 19.804151 19.364421 18.929569 18.499605 18.074535 17.654370 17.239116 16.828781 16.423373 16.022898 15.627363 15.236775 14.851139 14.470460 14.094745 13.723999 13.358226 12.997430 12.641615 12.290787 11.944947 11.604099 11.268245 10.937390 10.611533 10.290678 9.974826 9.663978 9.358135 9.057298 8.761466 8.470640 8.184820 7.904005 7.628194 7.357385 7.091577 6.830768 6.574955 6.324137 6.078310 5.837472 5.601618 5.370745 5.144849 4.923926 4.707970 4.496977 4.290941 4.089858 3.893720 3.702522 3.516258 3.334920 3.158502 2.986996 2.820395 2.658690 2.501874 2.349938 2.202873 2.060670 1.923321 1.790814 1.663141 1.540292 1.422255 1.309021 1.200578 1.096915 0.998022 0.903885 0.814494 0.729835 0.649898 0.574668 0.504133 0.438280 0.377096 0.320566 0.268678 0.221416 0.178767 0.140716 0.107248 0.078348 0.054002 0.034193 0.018906 0.008126 0.001836 0.000000 0.000000 0.000000 0.000000 0.000000 0.000000 0.000000 0.000000 0.000000 0.000000 0.000000 0.000000 0.000000 0.000000 0.000000 0.000000 0.000000 0.000000 0.000000 0.000000 0.000000 0.000000 0.000000 0.000000 0.000000 0.000000 0.000000 0.000000 0.000000 0.000000 0.000000 0.000000 0.000000 0.000000 0.000000 0.000000 0.000000 0.000000 0.000000 0.000000 0.000000 0.000000 0.000000 0.000000 0.000000 0.000000 0.000000 0.000000 0.000000 0.000000 0.000000 0.000000 0.000000 0.000000 0.000000 0.000000 0.000000 0.000000 0.000000 0.000000 0.000000 0.000000 0.000000 0.000000 0.000000 0.000000 0.000000 0.000000 0.000000 0.000000 0.000000 0.000000 0.000000 0.000000 0.000000 0.000000 0.000000 0.000000 0.000000 0.000000 0.000000 0.000000 0.000000 0.000000 0.000000 0.000000 0.000000 0.000000 0.000000 0.000000 0.000000 0.000000 0.000000 0.000000 0.000000 0.000000 0.000000 0.000000 0.000000 0.000000 0.000000 0.000000 0.000000 0.000000 0.000000 0.000000 0.000000 0.000000 0.000000 0.000000 0.000000 0.000000 0.000000 0.000000 0.000000 0.000000 0.000000 0.000000 0.000000 0.000000 0.000000 0.000000 0.000000 0.000000 0.000000 0.000000 0.000000 0.000000 0.000000 0.000000 0.000000 0.000000 0.000000 0.000000 0.000000 0.000000 0.000000 0.000000 0.000000 0.000000 0.000000 0.000000
62.039593 61.293922 60.551871 59.813467 59.078734 58.347697 57.620382 56.896814 56.177017 55.461015 54.748834 54.040497 53.336028 52.635452 51.938793 51.246073 50.557316 49.872546 49.191785 48.515057 47.842384 47.173788 46.509293 45.848919 45.192690 44.540626 43.892749 43.249080 42.609642 41.974453 41.343536 40.716909 40.094595 39.476612 38.862981 38.253720 37.648850 37.048388 36.452355 35.860768 35.273646 34.691007 34.112868 33.539248 32.970163 32.405630 31.845667 31.290289 30.739513 30.193356 29.651831 29.114956 28.582745 28.055213 27.532374 27.014244 26.500835 25.992161 25.488237 24.989075 24.494688 24.005088 23.520288 23.040300 22.565135 22.094805 21.629321 21.168693 20.712932 20.262049 19.816052 19.374952 18.938757 18.507477 18.081121 17.659695 17.243209 16.831670 16.425085 16.023462 15.626807 15.235126 14.848425 14.466711 14.089988 13.718262 13.351537 12.989818 12.633109 12.281414 11.934736 11.593079 11.256444 10.924836 10.598255 10.276704 9.960185 9.648698 9.342244 9.040825 8.744440 8.453089 8.166772 7.885488 7.609237 7.338016 7.071824 6.810659 6.554520 6.303403 6.057305 5.816223 5.580154 5.349094 5.123038 4.901983 4.685923 4.474854 4.268770 4.067665 3.871533 3.680369 3.494165 3.312915 3.136611 2.965247 2.798814 2.637305 2.480710 2.329022 2.182232 2.040330 1.903307 1.771154 1.643860 1.521415 1.403809 1.291030 1.183069 1.079912 0.981550 0.887970 0.799160 0.715108 0.635801 0.561226 0.491370 0.426220 0.365763 0.309984 0.258869 0.212405 0.170577 0.133370 0.100769 0.072759 0.049324 0.030450 0.016120 0.006318 0.001028 0.000000 0.000000 0.000000 0.000000 0.000000 0.000000 0.000000 0.000000 0.000000 0.000000 0.000000 0.000000 0.000000 0.000000 0.000000 0.000000 0.000000 0.000000 0.000000 0.000000 0.000000 0.000000 0.000000 0.000000 0.000000 0.000000 0.000000 0.000000 0.000000 0.000000 0.000000 0.000000 0.000000 0.000000 0.000000 0.000000 0.000000 0.000000 0.000000 0.000000 0.000000 0.000000 0.000000 0.000000 0.000000 0.000000 0.000000 0.000000 0.000000 0.000000 0.000000 0.000000 0.000000 0.000000 0.000000 0.000000 0.000000 0.000000 0.000000 0.000000 0.000000 0.000000 0.000000 0.000000 0.000000 0.000000 0.000000 0.000000 0.000000 0.000000 0.000000 0.000000 0.000000 0.000000 0.000000 0.000000 0.000000 0.000000 0.000000 0.000000 0.000000 0.000000 0.000000 0.000000 0.000000 0.000000 0.000000 0.000000 0.000000 0.000000 0.000000 0.000000 0.000000 0.000000 0.000000 0.000000 0.000000 0.000000 0.000000 0.000000 0.000000 0.000000 0.000000 0.000000 0.000000 0.000000 0.000000 0.000000 0.000000 0.000000 0.000000 0.000000 0.000000 0.000000 0.000000 0.000000 0.000000 0.000000 0.000000 0.000000 0.000000 0.000000 0.000000 0.000000 0.000000 0.000000 0.000000 0.000000 0.000000 0.000000 0.000000 0.000000 0.000000 0.000000 0.000000 0.000000 0.000000 0.000000 0.000000 0.000000 0.000000 0.000000
62.208504 61.459902 60.714937 59.973633 59.236015 58.502110 57.771942 57.045537 56.322919 55.604114 54.889145 54.178038 53.470817 52.767506 52.068129 51.372710 50.681272 49.993839 49.310435 48.631082 47.955803 47.284621 46.617559 45.954638 45.295882 44.641311 43.990948 43.344814 42.702931 42.065319 41.431999 40.802993 40.178320 39.558000 38.942054 38.330501 37.723361 37.120653 36.522395 35.928607 35.339308 34.754514 34.174245 33.598518 33.027350 32.460759 31.898761 31.341374 30.788614 30.240496 29.697036 29.158251 28.624156 28.094764 27.570092 27.050154 26.534963 26.024534 25.518880 25.018015 24.521951 24.030701 23.544277 23.062692 22.585957 22.114084 21.647084 21.184967 20.727745 20.275428 19.828025 19.385546 18.948000 18.515397 18.087745 17.665052 17.247326 16.834576 16.426808 16.024029 15.626247 15.233467 14.845697 14.462940 14.085204 13.712493 13.344812 12.982166 12.624557 12.271992 11.924472 11.582001 11.244582 10.912218 10.584910 10.262661 9.945471 9.633343 9.326277 9.024274 8.727334 8.435457 8.148642 7.866889 7.590196 7.318563 7.051987 6.790468 6.534001 6.282585 6.036217 5.794893 5.558610 5.327365 5.101151 4.879967 4.663805 4.452662 4.246531 4.045408 3.849286 3.658158 3.472018 3.290860 3.114675 2.943456 2.777196 2.615886 2.459519 2.308084 2.161574 2.019978 1.883288 1.751494 1.624585 1.502551 1.385381 1.273066 1.165592 1.062950 0.965126 0.872110 0.783889 0.700451 0.621782 0.547870 0.478702 0.414263 0.354542 0.299522 0.249191 0.203534 0.162536 0.126182 0.094458 0.067347 0.044835 0.026905 0.013542 0.004729 0.000451 0.000000 0.000000 0.000000 0.000000 0.000000 0.000000 0.000000 0.000000 0.000000 0.000000 0.000000 0.000000 0.000000 0.000000 0.000000 0.000000 0.000000 0.000000 0.000000 0.000000 0.000000 0.000000 0.000000 0.000000 0.000000 0.000000 0.000000 0.000000 0.000000 0.000000 0.000000 0.000000 0.000000 0.000000 0.000000 0.000000 0.000000 0.000000 0.000000 0.000000 0.000000 0.000000 0.000000 0.000000 0.000000 0.000000 0.000000 0.000000 0.000000 0.000000 0.000000 0.000000 0.000000 0.000000 0.000000 0.000000 0.000000 0.000000 0.000000 0.000000 0.000000 0.000000 0.000000 0.000000 0.000000 0.000000 0.000000 0.000000 0.000000 0.000000 0.000000 0.000000 0.000000 0.000000 0.000000 0.000000 0.000000 0.000000 0.000000 0.000000 0.000000 0.000000 0.000000 0.000000 0.000000 0.000000 0.000000 0.000000 0.000000 0.000000 0.000000 0.000000 0.000000 0.000000 0.000000 0.000000 0.000000 0.000000 0.000000 0.000000 0.000000 0.000000 0.000000 0.000000 0.000000 0.000000 0.000000 0.000000 0.000000 0.000000 0.000000 0.000000 0.000000 0.000000 0.000000 0.000000 0.000000 0.000000 0.000000 0.000000 0.000000 0.000000 0.000000 0.000000 0.000000 0.000000 0.000000 0.000000 0.000000 0.000000 0.000000 0.000000 0.000000 0.000000 0.000000 0.000000 0.000000 0.000000 0.000000 0.000000 0.000000 0.000000
62.378561 61.627010 60.879110 60.134886 59.394364 58.657570 57.924530 57.195268 56.469811 55.748182 55.030407 54.316511 53.606518 52.900453 52.198340 51.500203 50.806065 50.115951 49.429885 48.747888 48.069985 47.396199 46.726552 46.061067 45.399766 44.742671 44.089805 43.441188 42.796843 42.156791 41.521053 40.889649 40.262601 39.639928 39.021652 38.407790 37.798365 37.193394 36.592897 35.996893 35.405400 34.818437 34.236023 33.658175 33.084910 32.516246 31.952201 31.392790 30.838031 30.287940 29.742532 29.201824 28.665831 28.134568 27.608050 27.086292 26.569308 26.057111 25.549716 25.047136 24.549384 24.056472 23.568414 23.085222 22.606907 22.133481 21.664955 21.201341 20.742648 20.288887 19.840069 19.396203 18.957298 18.523363 18.094407 17.670439 17.251467 16.837498 16.428540 16.024599 15.625684 15.231800 14.842953 14.459149 14.080394 13.706693 13.338051 12.974472 12.615960 12.262519 11.914154 11.570866 11.232659 10.899536 10.571498 10.248547 9.930685 9.617914 9.310234 9.007645 8.710148 8.417743 8.130429 7.848205 7.571072 7.299026 7.032067 6.770192 6.513399 6.261685 6.015047 5.773483 5.536987 5.305557 5.079188 4.857876 4.641615 4.430400 4.224226 4.023088 3.826978 3.635890 3.449818 3.268755 3.092693 2.921625 2.755542 2.594437 2.438300 2.287124 2.140899 1.999616 1.863264 1.731835 1.605317 1.483701 1.366975 1.255128 1.148150 1.046028 0.948751 0.856307 0.768682 0.685865 0.607843 0.534603 0.466131 0.402413 0.343435 0.289185 0.239646 0.194805 0.154647 0.119157 0.088318 0.062117 0.040537 0.023562 0.011177 0.003364 0.000107 0.000000 0.000000 0.000000 0.000000 0.000000 0.000000 0.000000 0.000000 0.000000 0.000000 0.000000 0.000000 0.000000 0.000000 0.000000 0.000000 0.000000 0.000000 0.000000 0.000000 0.000000 0.000000 0.000000 0.000000 0.000000 0.000000 0.000000 0.000000 0.000000 0.000000 0.000000 0.000000 0.000000 0.000000 0.000000 0.000000 0.000000 0.000000 0.000000 0.000000 0.000000 0.000000 0.000000 0.000000 0.000000 0.000000 0.000000 0.000000 0.000000 0.000000 0.000000 0.000000 0.000000 0.000000 0.000000 0.000000 0.000000 0.000000 0.000000 0.000000 0.000000 0.000000 0.000000 0.000000 0.000000 0.000000 0.000000 0.000000 0.000000 0.000000 0.000000 0.000000 0.000000 0.000000 0.000000 0.000000 0.000000 0.000000 0.000000 0.000000 0.000000 0.000000 0.000000 0.000000 0.000000 0.000000 0.000000 0.000000 0.000000 0.000000 0.000000 0.000000 0.000000 0.000000 0.000000 0.000000 0.000000 0.000000 0.000000 0.000000 0.000000 0.000000 0.000000 0.000000 0.000000 0.000000 0.000000 0.000000 0.000000 0.000000 0.000000 0.000000 0.000000 0.000000 0.000000 0.000000 0.000000 0.000000 0.000000 0.000000 0.000000 0.000000 0.000000 0.000000 0.000000 0.000000 0.000000 0.000000 0.000000 0.000000 0.000000 0.000000 0.000000 0.000000 0.000000 0.000000 0.000000 0.000000 0.000000 0.000000 0.000000 0.000000
62.549776 61.795255 61.044400 60.297236 59.553791 58.814088 58.078156 57.346018 56.617701 55.893229 55.172629 54.455924 53.743141 53.034302 52.329434 51.628560 50.931704 50.238890 49.550142 48.865484 48.184939 47.508530 46.836280 46.168213 45.504349 44.844713 44.189325 43.538209 42.891385 42.248876 41.610702 40.976884 40.347444 39.722402 39.101778 38.485593 37.873866 37.266616 36.663864 36.065628 35.471928 34.882781 34.298206 33.718222 33.142846 32.572095 32.005987 31.444540 30.887768 30.335690 29.788321 29.245677 28.707774 28.174627 27.646250 27.122660 26.603870 26.089894 25.580746 25.076439 24.576988 24.082405 23.592702 23.107891 22.627986 22.152997 21.682936 21.217814 20.757641 20.302428 19.852186 19.406924 18.966651 18.531377 18.101110 17.675859 17.255632 16.840437 16.430282 16.025173 15.625117 15.230122 14.840193 14.455336 14.075557 13.700861 13.331252 12.966736 12.607316 12.252997 11.903781 11.559673 11.220674 10.886788 10.558017 10.234363 9.915826 9.602409 9.294112 8.990936 8.692881 8.399947 8.112133 7.829439 7.551863 7.279404 7.012061 6.749831 6.492712 6.240701 5.993795 5.751991 5.515284 5.283672 5.057149 4.835711 4.619353 4.408069 4.201855 4.000704 3.804609 3.613565 3.427565 3.246601 3.070666 2.899752 2.733851 2.572955 2.417056 2.266143 2.120209 1.979243 1.843236 1.712178 1.586058 1.464865 1.348589 1.237219 1.130743 1.029150 0.932426 0.840561 0.753541 0.671354 0.593987 0.521427 0.453659 0.390670 0.332446 0.278973 0.230237 0.186221 0.146913 0.112295 0.082353 0.057072 0.036434 0.020425 0.009027 0.002225 0.000000 0.000000 0.000000 0.000000 0.000000 0.000000 0.000000 0.000000 0.000000 0.000000 0.000000 0.000000 0.000000 0.000000 0.000000 0.000000 0.000000 0.000000 0.000000 0.000000 0.000000 0.000000 0.000000 0.000000 0.000000 0.000000 0.000000 0.000000 0.000000 0.000000 0.000000 0.000000 0.000000 0.000000 0.000000 0.000000 0.000000 0.000000 0.000000 0.000000 0.000000 0.000000 0.000000 0.000000 0.000000 0.000000 0.000000 0.000000 0.000000 0.000000 0.000000 0.000000 0.000000 0.000000 0.000000 0.000000 0.000000 0.000000 0.000000 0.000000 0.000000 0.000000 0.000000 0.000000 0.000000 0.000000 0.000000 0.000000 0.000000 0.000000 0.000000 0.000000 0.000000 0.000000 0.000000 0.000000 0.000000 0.000000 0.000000 0.000000 0.000000 0.000000 0.000000 0.000000 0.000000 0.000000 0.000000 0.000000 0.000000 0.000000 0.000000 0.000000 0.000000 0.000000 0.000000 0.000000 0.000000 0.000000 0.000000 0.000000 0.000000 0.000000 0.000000 0.000000 0.000000 0.000000 0.000000 0.000000 0.000000 0.000000 0.000000 0.000000 0.000000 0.000000 0.000000 0.000000 0.000000 0.000000 0.000000 0.000000 0.000000 0.000000 0.000000 0.000000 0.000000 0.000000 0.000000 0.000000 0.000000 0.000000 0.000000 0.000000 0.000000 0.000000 0.000000 0.000000 0.000000 0.000000 0.000000 0.000000 0.000000 0.000000 0.000000
62.722161 61.964650 61.210819 60.460696 59.714306 58.971675 58.232830 57.497796 56.766599 56.039266 55.315820 54.596287 53.880693 53.169062 52.461419 51.757789 51.058195 50.362663 49.671216 48.983877 48.300671 47.621622 46.946751 46.276082 45.609639 44.947443 44.289517 43.635883 42.986563 42.341579 41.700952 41.064704 40.432855 39.805427 39.182439 38.563913 37.949868 37.340325 36.735302 36.134819 35.538895 34.947549 34.360799 33.778664 33.201162 32.628310 32.060125 31.496626 30.937829 30.383750 29.834406 29.289813 28.749986 28.214942 27.684695 27.159260 26.638651 26.122884 25.611972 25.105928 24.604766 24.108500 23.617141 23.130702 22.649196 22.172633 21.701027 21.234387 20.772725 20.316051 19.864376 19.417709 18.976060 18.539438 18.107851 17.681310 17.259821 16.843393 16.432034 16.025750 15.624548 15.228436 14.837418 14.451503 14.070694 13.694997 13.324417 12.958959 12.598626 12.243423 11.893354 11.548421 11.208627 10.873976 10.544468 10.220107 9.900893 9.586828 9.277913 8.974147 8.675533 8.382068 8.093753 7.810587 7.532569 7.259697 6.991970 6.729386 6.471941 6.219633 5.972460 5.730417 5.493501 5.261707 5.035032 4.813471 4.597018 4.385669 4.179416 3.978256 3.782180 3.591184 3.405259 3.224398 3.048594 2.877839 2.712125 2.551444 2.395786 2.245142 2.099504 1.958862 1.823205 1.692524 1.566808 1.446046 1.330227 1.219340 1.113374 1.012315 0.916153 0.824875 0.738468 0.656919 0.580215 0.508343 0.441288 0.379038 0.321577 0.268891 0.220965 0.177785 0.139336 0.105601 0.076566 0.052214 0.032530 0.017496 0.007097 0.001316 0.000000 0.000000 0.000000 0.000000 0.000000 0.000000 0.000000 0.000000 0.000000 0.000000 0.000000 0.000000 0.000000 0.000000 0.000000 0.000000 0.000000 0.000000 0.000000 0.000000 0.000000 0.000000 0.000000 0.000000 0.000000 0.000000 0.000000 0.000000 0.000000 0.000000 0.000000 0.000000 0.000000 0.000000 0.000000 0.000000 0.000000 0.000000 0.000000 0.000000 0.000000 0.000000 0.000000 0.000000 0.000000 0.000000 0.000000 0.000000 0.000000 0.000000 0.000000 0.000000 0.000000 0.000000 0.000000 0.000000 0.000000 0.000000 0.000000 0.000000 0.000000 0.000000 0.000000 0.000000 0.000000 0.000000 0.000000 0.000000 0.000000 0.000000 0.000000 0.000000 0.000000 0.000000 0.000000 0.000000 0.000000 0.000000 0.000000 0.000000 0.000000 0.000000 0.000000 0.000000 0.000000 0.000000 0.000000 0.000000 0.000000 0.000000 0.000000 0.000000 0.000000 0.000000 0.000000 0.000000 0.000000 0.000000 0.000000 0.000000 0.000000 0.000000 0.000000 0.000000 0.000000 0.000000 0.000000 0.000000 0.000000 0.000000 0.000000 0.000000 0.000000 0.000000 0.000000 0.000000 0.000000 0.000000 0.000000 0.000000 0.000000 0.000000 0.000000 0.000000 0.000000 0.000000 0.000000 0.000000 0.000000 0.000000 0.000000 0.000000 0.000000 0.000000 0.000000 0.000000 0.000000 0.000000 0.000000 0.000000 0.000000 0.000000 0.000000
62.895727 62.135205 61.378378 60.625274 59.875919 59.130340 58.388562 57.650612 56.916516 56.186300 55.459989 54.737609 54.019185 53.304742 52.594305 51.887899 51.185549 50.487279 49.793113 49.103075 48.417190 47.735481 47.057970 46.384683 45.715641 45.050867 44.390385 43.734215 43.082382 42.434906 41.791809 41.153113 40.518839 39.889007 39.263640 38.642757 38.026378 37.414524 36.807214 36.204469 35.606306 35.012745 34.423805 33.839504 33.259861 32.684893 32.114618 31.549053 30.988216 30.432122 29.880790 29.334234 28.792471 28.255517 27.723386 27.196094 26.673655 26.156084 25.643396 25.135603 24.632719 24.134758 23.641732 23.153655 22.670537 22.192391 21.719229 21.251063 20.787902 20.329757 19.876640 19.428559 18.985525 18.547547 18.114633 17.686793 17.264035 16.846367 16.433796 16.026330 15.623975 15.226739 14.834628 14.447647 14.065803 13.689100 13.317544 12.951139 12.589889 12.233799 11.882871 11.537110 11.196518 10.861097 10.530850 10.205779 9.885886 9.571170 9.261635 8.957278 8.658102 8.364106 8.075289 7.791651 7.513190 7.239905 6.971794 6.708854 6.451085 6.198481 5.951041 5.708761 5.471636 5.239664 5.012839 4.791156 4.574611 4.363198 4.156911 3.955744 3.759691 3.568745 3.382899 3.202146 3.026478 2.855886 2.690364 2.529901 2.374490 2.224121 2.078785 1.938472 1.803172 1.672874 1.547568 1.427244 1.311889 1.201492 1.096043 0.995527 0.899934 0.809251 0.723465 0.642562 0.566530 0.495354 0.429022 0.367518 0.310829 0.258939 0.211835 0.169500 0.131920 0.099078 0.070959 0.047548 0.028827 0.014780 0.005390 0.000641 0.000000 0.000000 0.000000 0.000000 0.000000 0.000000 0.000000 0.000000 0.000000 0.000000 0.000000 0.000000 0.000000 0.000000 0.000000 0.000000 0.000000 0.000000 0.000000 0.000000 0.000000 0.000000 0.000000 0.000000 0.000000 0.000000 0.000000 0.000000 0.000000 0.000000 0.000000 0.000000 0.000000 0.000000 0.000000 0.000000 0.000000 0.000000 0.000000 0.000000 0.000000 0.000000 0.000000 0.000000 0.000000 0.000000 0.000000 0.000000 0.000000 0.000000 0.000000 0.000000 0.000000 0.000000 0.000000 0.000000 0.000000 0.000000 0.000000 0.000000 0.000000 0.000000 0.000000 0.000000 0.000000 0.000000 0.000000 0.000000 0.000000 0.000000 0.000000 0.000000 0.000000 0.000000 0.000000 0.000000 0.000000 0.000000 0.000000 0.000000 0.000000 0.000000 0.000000 0.000000 0.000000 0.000000 0.000000 0.000000 0.000000 0.000000 0.000000 0.000000 0.000000 0.000000 0.000000 0.000000 0.000000 0.000000 0.000000 0.000000 0.000000 0.000000 0.000000 0.000000 0.000000 0.000000 0.000000 0.000000 0.000000 0.000000 0.000000 0.000000 0.000000 0.000000 0.000000 0.000000 0.000000 0.000000 0.000000 0.000000 0.000000 0.000000 0.000000 0.000000 0.000000 0.000000 0.000000 0.000000 0.000000 0.000000 0.000000 0.000000 0.000000 0.000000 0.000000 0.000000 0.000000 0.000000 0.000000 0.000000 0.000000 0.000000 0.000000
63.070486 62.306931 61.547088 60.790983 60.038643 59.290094 58.545364 57.804477 57.067462 56.334343 55.605147 54.879899 54.158625 53.441350 52.728099 52.018899 51.313773 50.612745 49.915842 49.223086 48.534503 47.850115 47.169947 46.494022 45.822363 45.154993 44.491936 43.833214 43.178849 42.528863 41.883279 41.242118 40.605401 39.973150 39.345386 38.722129 38.103400 37.489219 36.879607 36.274582 35.674165 35.078374 34.487228 33.900746 33.318947 32.741848 32.169468 31.601823 31.038932 30.480810 29.927476 29.378944 28.835231 28.296353 27.762326 27.233164 26.708883 26.189497 25.675020 25.165466 24.660849 24.161182 23.666478 23.176751 22.692011 22.212272 21.737544 21.267841 20.803171 20.343547 19.888978 19.439475 18.995047 18.555704 18.121456 17.692309 17.268274 16.849358 16.435568 16.026913 15.623399 15.225033 14.831821 14.443770 14.060885 13.683171 13.310633 12.943276 12.581105 12.224122 11.872333 11.525740 11.184345 10.848152 10.517163 10.191380 9.870804 9.555436 9.245277 8.940329 8.640590 8.346061 8.056741 7.772629 7.493725 7.220026 6.951531 6.688237 6.430143 6.177244 5.929539 5.687022 5.449691 5.217541 4.990568 4.768767 4.552132 4.340658 4.134339 3.933169 3.737142 3.546251 3.360487 3.179846 3.004317 2.833894 2.668567 2.508329 2.353170 2.203081 2.058053 1.918075 1.783137 1.653229 1.528341 1.408460 1.293576 1.183677 1.078751 0.978787 0.883770 0.793690 0.708533 0.628285 0.552933 0.482463 0.416862 0.356114 0.300206 0.249122 0.202848 0.161368 0.124667 0.092728 0.065537 0.043076 0.025329 0.012279 0.003910 0.000205 0.000000 0.000000 0.000000 0.000000 0.000000 0.000000 0.000000 0.000000 0.000000 0.000000 0.000000 0.000000 0.000000 0.000000 0.000000 0.000000 0.000000 0.000000 0.000000 0.000000 0.000000 0.000000 0.000000 0.000000 0.000000 0.000000 0.000000 0.000000 0.000000 0.000000 0.000000 0.000000 0.000000 0.000000 0.000000 0.000000 0.000000 0.000000 0.000000 0.000000 0.000000 0.000000 0.000000 0.000000 0.000000 0.000000 0.000000 0.000000 0.000000 0.000000 0.000000 0.000000 0.000000 0.000000 0.000000 0.000000 0.000000 0.000000 0.000000 0.000000 0.000000 0.000000 0.000000 0.000000 0.000000 0.000000 0.000000 0.000000 0.000000 0.000000 0.000000 0.000000 0.000000 0.000000 0.000000 0.000000 0.000000 0.000000 0.000000 0.000000 0.000000 0.000000 0.000000 0.000000 0.000000 0.000000 0.000000 0.000000 0.000000 0.000000 0.000000 0.000000 0.000000 0.000000 0.000000 0.000000 0.000000 0.000000 0.000000 0.000000 0.000000 0.000000 0.000000 0.000000 0.000000 0.000000 0.000000 0.000000 0.000000 0.000000 0.000000 0.000000 0.000000 0.000000 0.000000 0.000000 0.000000 0.000000 0.000000 0.000000 0.000000 0.000000 0.000000 0.000000 0.000000 0.000000 0.000000 0.000000 0.000000 0.000000 0.000000 0.000000 0.000000 0.000000 0.000000 0.000000 0.000000 0.000000 0.000000 0.000000 0.000000 0.000000 0.000000
63.246448 62.479841 61.716960 60.957834 60.202487 59.450949 58.703244 57.959401 57.219446 56.483404 55.751302 55.023166 54.299022 53.578896 52.862812 52.150797 51.442875 50.739072 50.039411 49.343918 48.652617 47.965532 47.282687 46.604106 45.929812 45.259828 44.594178 43.932885 43.275970 42.623457 41.975368 41.331724 40.692547 40.057860 39.427682 38.802034 38.180939 37.564415 36.952483 36.345164 35.742476 35.144439 34.551072 33.962394 33.378424 32.799180 32.224680 31.654941 31.089981 30.529817 29.974466 29.423944 28.878269 28.337454 27.801518 27.270473 26.744337 26.223123 25.706845 25.195519 24.689157 24.187773 23.691380 23.199992 22.713619 22.232276 21.755973 21.284722 20.818534 20.357421 19.901391 19.450457 19.004627 18.563911 18.128318 17.697858 17.272538 16.852366 16.437351 16.027500 15.622820 15.223317 14.828999 14.439871 14.055939 13.677208 13.303684 12.935371 12.572273 12.214394 11.861738 11.514309 11.172109 10.835140 10.503406 10.176907 9.855646 9.539624 9.228840 8.923297 8.622994 8.327931 8.038107 7.753521 7.474173 7.200060 6.931182 6.667534 6.409115 6.155922 5.907952 5.665201 5.427665 5.195339 4.968220 4.746302 4.529580 4.318048 4.111700 3.910531 3.714533 3.523699 3.338023 3.157497 2.982112 2.811862 2.646737 2.486728 2.331827 2.182023 2.037308 1.897671 1.763102 1.633591 1.509126 1.389696 1.275290 1.165896 1.061502 0.962095 0.867664 0.778194 0.693674 0.614089 0.539426 0.469671 0.404810 0.344828 0.289710 0.239442 0.194008 0.153393 0.117580 0.086555 0.060301 0.038802 0.022040 0.009999 0.002661 0.000011 0.000000 0.000000 0.000000 0.000000 0.000000 0.000000 0.000000 0.000000 0.000000 0.000000 0.000000 0.000000 0.000000 0.000000 0.000000 0.000000 0.000000 0.000000 0.000000 0.000000 0.000000 0.000000 0.000000 0.000000 0.000000 0.000000 0.000000 0.000000 0.000000 0.000000 0.000000 0.000000 0.000000 0.000000 0.000000 0.000000 0.000000 0.000000 0.000000 0.000000 0.000000 0.000000 0.000000 0.000000 0.000000 0.000000 0.000000 0.000000 0.000000 0.000000 0.000000 0.000000 0.000000 0.000000 0.000000 0.000000 0.000000 0.000000 0.000000 0.000000 0.000000 0.000000 0.000000 0.000000 0.000000 0.000000 0.000000 0.000000 0.000000 0.000000 0.000000 0.000000 0.000000 0.000000 0.000000 0.000000 0.000000 0.000000 0.000000 0.000000 0.000000 0.000000 0.000000 0.000000 0.000000 0.000000 0.000000 0.000000 0.000000 0.000000 0.000000 0.000000 0.000000 0.000000 0.000000 0.000000 0.000000 0.000000 0.000000 0.000000 0.000000 0.000000 0.000000 0.000000 0.000000 0.000000 0.000000 0.000000 0.000000 0.000000 0.000000 0.000000 0.000000 0.000000 0.000000 0.000000 0.000000 0.000000 0.000000 0.000000 0.000000 0.000000 0.000000 0.000000 0.000000 0.000000 0.000000 0.000000 0.000000 0.000000 0.000000 0.000000 0.000000 0.000000 0.000000 0.000000 0.000000 0.000000 0.000000 0.000000 0.000000 0.000000 0.000000
63.423626 62.653945 61.888006 61.125836 60.367463 59.612914 58.862215 58.115394 57.372478 56.633493 55.898465 55.167421 54.440387 53.717389 52.998452 52.283603 51.572865 50.866266 50.163829 49.465579 48.771541 48.081740 47.396199 46.714943 46.037995 45.365378 44.697117 44.033234 43.373752 42.718694 42.068082 41.421938 40.780284 40.143142 39.510533 38.882479 38.258999 37.640116 37.025849 36.416218 35.811244 35.210945 34.615342 34.024453 33.438296 32.856891 32.280256 31.708408 31.141365 30.579145 30.021764 29.469239 28.921586 28.378823 27.840963 27.308024 26.780019 26.256965 25.738875 25.225763 24.717645 24.214532 23.716439 23.223379 22.735363 22.252405 21.774516 21.301708 20.833992 20.371379 19.913881 19.461506 19.014265 18.572167 18.135222 17.703439 17.276827 16.855392 16.439144 16.028090 15.622237 15.221592 14.826161 14.435950 14.050966 13.671213 13.296697 12.927422 12.563393 12.204613 11.851087 11.502818 11.159808 10.822061 10.489578 10.162361 9.840413 9.523733 9.212323 8.906184 8.605315 8.309716 8.019387 7.734327 7.454535 7.180008 6.910745 6.646744 6.388001 6.134515 5.886281 5.643297 5.405557 5.173058 4.945794 4.723762 4.506955 4.295368 4.088994 3.887828 3.691863 3.501091 3.315506 3.135100 2.959864 2.789791 2.624872 2.465098 2.310460 2.160947 2.016551 1.877262 1.743068 1.613959 1.489925 1.370953 1.257032 1.148150 1.044295 0.945454 0.851616 0.762766 0.678891 0.599978 0.526012 0.456981 0.392869 0.333661 0.279344 0.229901 0.185317 0.145577 0.110664 0.080563 0.055257 0.034729 0.018963 0.007941 0.001647 0.000000 0.000000 0.000000 0.000000 0.000000 0.000000 0.000000 0.000000 0.000000 0.000000 0.000000 0.000000 0.000000 0.000000 0.000000 0.000000 0.000000 0.000000 0.000000 0.000000 0.000000 0.000000 0.000000 0.000000 0.000000 0.000000 0.000000 0.000000 0.000000 0.000000 0.000000 0.000000 0.000000 0.000000 0.000000 0.000000 0.000000 0.000000 0.000000 0.000000 0.000000 0.000000 0.000000 0.000000 0.000000 0.000000 0.000000 0.000000 0.000000 0.000000 0.000000 0.000000 0.000000 0.000000 0.000000 0.000000 0.000000 0.000000 0.000000 0.000000 0.000000 0.000000 0.000000 0.000000 0.000000 0.000000 0.000000 0.000000 0.000000 0.000000 0.000000 0.000000 0.000000 0.000000 0.000000 0.000000 0.000000 0.000000 0.000000 0.000000 0.000000 0.000000 0.000000 0.000000 0.000000 0.000000 0.000000 0.000000 0.000000 0.000000 0.000000 0.000000 0.000000 0.000000 0.000000 0.000000 0.000000 0.000000 0.000000 0.000000 0.000000 0.000000 0.000000 0.000000 0.000000 0.000000 0.000000 0.000000 0.000000 0.000000 0.000000 0.000000 0.000000 0.000000 0.000000 0.000000 0.000000 0.000000 0.000000 0.000000 0.000000 0.000000 0.000000 0.000000 0.000000 0.000000 0.000000 0.000000 0.000000 0.000000 0.000000 0.000000 0.000000 0.000000 0.000000 0.000000 0.000000 0.000000 0.000000 0.000000 0.000000 0.000000 0.000000 0.000000
63.602032 62.829256 62.060237 61.295003 60.533582 59.776001 59.022287 58.272467 57.526570 56.784620 56.046646 55.312674 54.582729 53.856839 53.135029 52.417324 51.703752 50.994336 50.289103 49.588077 48.891283 48.198746 47.510490 46.826540 46.146919 45.471651 44.800761 44.134270 43.472202 42.814580 42.161427 41.512765 40.868617 40.229003 39.593946 38.963467 38.337587 37.716327 37.099708 36.487750 35.880473 35.277897 34.680041 34.086924 33.498567 32.914986 32.336201 31.762229 31.193089 30.628798 30.069372 29.514830 28.965187 28.420460 27.880665 27.345817 26.815932 26.291024 25.771109 25.256201 24.746314 24.241461 23.741657 23.246913 22.757243 22.272660 21.793175 21.318799 20.849546 20.385424 19.926446 19.472622 19.023961 18.580473 18.142168 17.709054 17.281141 16.858436 16.440948 16.028684 15.621651 15.219856 14.823306 14.432007 14.045964 13.665184 13.289670 12.919429 12.554464 12.194780 11.840379 11.491266 11.147444 10.808914 10.475679 10.147742 9.825103 9.507764 9.195725 8.888988 8.587552 8.291416 8.000581 7.715046 7.434808 7.159867 6.890221 6.625866 6.366801 6.113022 5.864526 5.621309 5.383367 5.150696 4.923291 4.701146 4.484257 4.272617 4.066221 3.865062 3.669133 3.478428 3.292938 3.112655 2.937573 2.767682 2.602974 2.443440 2.289070 2.139855 1.995784 1.856848 1.723035 1.594336 1.470739 1.352232 1.238803 1.130441 1.027133 0.928866 0.835628 0.747406 0.664185 0.585952 0.512694 0.444395 0.381041 0.322618 0.269110 0.220502 0.176778 0.137923 0.103920 0.074754 0.050406 0.030861 0.016102 0.006111 0.000871 0.000000 0.000000 0.000000 0.000000 0.000000 0.000000 0.000000 0.000000 0.000000 0.000000 0.000000 0.000000 0.000000 0.000000 0.000000 0.000000 0.000000 0.000000 0.000000 0.000000 0.000000 0.000000 0.000000 0.000000 0.000000 0.000000 0.000000 0.000000 0.000000 0.000000 0.000000 0.000000 0.000000 0.000000 0.000000 0.000000 0.000000 0.000000 0.000000 0.000000 0.000000 0.000000 0.000000 0.000000 0.000000 0.000000 0.000000 0.000000 0.000000 0.000000 0.000000 0.000000 0.000000 0.000000 0.000000 0.000000 0.000000 0.000000 0.000000 0.000000 0.000000 0.000000 0.000000 0.000000 0.000000 0.000000 0.000000 0.000000 0.000000 0.000000 0.000000 0.000000 0.000000 0.000000 0.000000 0.000000 0.000000 0.000000 0.000000 0.000000 0.000000 0.000000 0.000000 0.000000 0.000000 0.000000 0.000000 0.000000 0.000000 0.000000 0.000000 0.000000 0.000000 0.000000 0.000000 0.000000 0.000000 0.000000 0.000000 0.000000 0.000000 0.000000 0.000000 0.000000 0.000000 0.000000 0.000000 0.000000 0.000000 0.000000 0.000000 0.000000 0.000000 0.000000 0.000000 0.000000 0.000000 0.000000 0.000000 0.000000 0.000000 0.000000 0.000000 0.000000 0.000000 0.000000 0.000000 0.000000 0.000000 0.000000 0.000000 0.000000 0.000000 0.000000 0.000000 0.000000 0.000000 0.000000 0.000000 0.000000 0.000000 0.000000 0.000000 0.000000
63.781679 63.005786 62.233665 61.465346 60.700855 59.940220 59.183470 58.430631 57.681731 56.936796 56.195855 55.458933 54.726058 53.997255 53.272551 52.551972 51.835544 51.123292 50.415243 49.711421 49.011851 48.316559 47.625569 46.938905 46.256592 45.578654 44.905115 44.235997 43.571326 42.911122 42.255410 41.604212 40.957551 40.315448 39.677925 39.045004 38.416707 37.793054 37.174066 36.559764 35.950168 35.345298 34.745174 34.149814 33.559240 32.973468 32.392518 31.816407 31.245155 30.678778 30.117295 29.560721 29.009074 28.462370 27.920625 27.383856 26.852077 26.325304 25.803552 25.286835 24.775167 24.268562 23.767035 23.270597 22.779262 22.293042 21.811950 21.335997 20.865196 20.399556 19.939089 19.483806 19.033716 18.588829 18.149155 17.714703 17.285481 16.861498 16.442762 16.029281 15.621061 15.218110 14.820435 14.428041 14.040934 13.659121 13.282605 12.911392 12.545487 12.184893 11.829614 11.479653 11.135013 10.795698 10.461709 10.133048 9.809716 9.491715 9.179046 8.871709 8.569704 8.273030 7.981689 7.695677 7.414994 7.139638 6.869608 6.604900 6.345513 6.091442 5.842685 5.599237 5.361095 5.128254 4.900709 4.678455 4.461486 4.249797 4.043381 3.842233 3.646344 3.455708 3.270317 3.090163 2.915239 2.745535 2.581043 2.421754 2.267658 2.118746 1.975006 1.836430 1.703005 1.574722 1.451569 1.333534 1.220605 1.112770 1.010017 0.912332 0.819703 0.732117 0.649558 0.572015 0.499472 0.431915 0.369330 0.311700 0.259012 0.211249 0.168395 0.130435 0.097353 0.069131 0.045753 0.027203 0.013461 0.004513 0.000338 0.000000 0.000000 0.000000 0.000000 0.000000 0.000000 0.000000 0.000000 0.000000 0.000000 0.000000 0.000000 0.000000 0.000000 0.000000 0.000000 0.000000 0.000000 0.000000 0.000000 0.000000 0.000000 0.000000 0.000000 0.000000 0.000000 0.000000 0.000000 0.000000 0.000000 0.000000 0.000000 0.000000 0.000000 0.000000 0.000000 0.000000 0.000000 0.000000 0.000000 0.000000 0.000000 0.000000 0.000000 0.000000 0.000000 0.000000 0.000000 0.000000 0.000000 0.000000 0.000000 0.000000 0.000000 0.000000 0.000000 0.000000 0.000000 0.000000 0.000000 0.000000 0.000000 0.000000 0.000000 0.000000 0.000000 0.000000 0.000000 0.000000 0.000000 0.000000 0.000000 0.000000 0.000000 0.000000 0.000000 0.000000 0.000000 0.000000 0.000000 0.000000 0.000000 0.000000 0.000000 0.000000 0.000000 0.000000 0.000000 0.000000 0.000000 0.000000 0.000000 0.000000 0.000000 0.000000 0.000000 0.000000 0.000000 0.000000 0.000000 0.000000 0.000000 0.000000 0.000000 0.000000 0.000000 0.000000 0.000000 0.000000 0.000000 0.000000 0.000000 0.000000 0.000000 0.000000 0.000000 0.000000 0.000000 0.000000 0.000000 0.000000 0.000000 0.000000 0.000000 0.000000 0.000000 0.000000 0.000000 0.000000 0.000000 0.000000 0.000000 0.000000 0.000000 0.000000 0.000000 0.000000 0.000000 0.000000 0.000000 0.000000 0.000000 0.000000 0.000000
63.962577 63.183545 62.408302 61.636875 60.869293 60.105584 59.345776 58.589896 57.837972 57.090032 56.346102 55.606210 54.870382 54.138646 53.411028 52.687554 51.968250 51.253142 50.542256 49.835618 49.133253 48.435186 47.741442 47.052046 46.367022 45.686394 45.010187 44.338425 43.671130 43.008326 42.350037 41.696285 41.047093 40.402483 39.762477 39.127097 38.496365 37.870301 37.248928 36.632265 36.020334 35.413153 34.810745 34.213127 33.620319 33.032340 32.449210 31.870946 31.297567 30.729090 30.165533 29.606914 29.053249 28.504554 27.960847 27.422143 26.888458 26.359806 25.836204 25.317665 24.804205 24.295837 23.792574 23.294431 22.801419 22.313553 21.830843 21.353303 20.880943 20.413775 19.951810 19.495058 19.043530 18.597236 18.156185 17.720386 17.289847 16.864579 16.444588 16.029882 15.620468 15.216355 14.817547 14.424053 14.035876 13.653024 13.275500 12.903311 12.536460 12.174952 11.818790 11.467978 11.122518 10.782413 10.447666 10.118278 9.794251 9.475587 9.162285 8.854346 8.551770 8.254558 7.962708 7.676220 7.395091 7.119321 6.848907 6.583847 6.324137 6.069776 5.820758 5.577081 5.338740 5.105731 4.878049 4.655687 4.438642 4.226907 4.020475 3.819340 3.623494 3.432932 3.247645 3.067624 2.892862 2.723351 2.559080 2.400042 2.246225 2.097621 1.954219 1.816009 1.682979 1.555119 1.432417 1.314861 1.202439 1.095139 0.992949 0.895854 0.803842 0.716900 0.635013 0.558168 0.486350 0.419544 0.357736 0.300910 0.249051 0.202143 0.160170 0.123116 0.090965 0.063699 0.041302 0.023756 0.011044 0.003149 0.000052 0.000000 0.000000 0.000000 0.000000 0.000000 0.000000 0.000000 0.000000 0.000000 0.000000 0.000000 0.000000 0.000000 0.000000 0.000000 0.000000 0.000000 0.000000 0.000000 0.000000 0.000000 0.000000 0.000000 0.000000 0.000000 0.000000 0.000000 0.000000 0.000000 0.000000 0.000000 0.000000 0.000000 0.000000 0.000000 0.000000 0.000000 0.000000 0.000000 0.000000 0.000000 0.000000 0.000000 0.000000 0.000000 0.000000 0.000000 0.000000 0.000000 0.000000 0.000000 0.000000 0.000000 0.000000 0.000000 0.000000 0.000000 0.000000 0.000000 0.000000 0.000000 0.000000 0.000000 0.000000 0.000000 0.000000 0.000000 0.000000 0.000000 0.000000 0.000000 0.000000 0.000000 0.000000 0.000000 0.000000 0.000000 0.000000 0.000000 0.000000 0.000000 0.000000 0.000000 0.000000 0.000000 0.000000 0.000000 0.000000 0.000000 0.000000 0.000000 0.000000 0.000000 0.000000 0.000000 0.000000 0.000000 0.000000 0.000000 0.000000 0.000000 0.000000 0.000000 0.000000 0.000000 0.000000 0.000000 0.000000 0.000000 0.000000 0.000000 0.000000 0.000000 0.000000 0.000000 0.000000 0.000000 0.000000 0.000000 0.000000 0.000000 0.000000 0.000000 0.000000 0.000000 0.000000 0.000000 0.000000 0.000000 0.000000 0.000000 0.000000 0.000000 0.000000 0.000000 0.000000 0.000000 0.000000 0.000000 0.000000 0.000000 0.000000 0.000000 0.000000
64.144741 63.362548 62.584159 61.809604 61.038909 60.272103 59.509216 58.750273 57.995304 57.244337 56.497397 55.754514 55.015713 54.281023 53.550469 52.824079 52.101879 51.383895 50.670153 49.960679 49.255498 48.554636 47.858118 47.165970 46.478215 45.794879 45.115985 44.441558 43.771622 43.106199 42.445314 41.788990 41.137249 40.490113 39.847606 39.209750 38.576565 37.948074 37.324298 36.705258 36.090974 35.481467 34.876758 34.276865 33.681808 33.091608 32.506282 31.925849 31.350328 30.779736 30.214092 29.653413 29.097715 28.547016 28.001333 27.460680 26.925075 26.394533 25.869068 25.348695 24.833430 24.323286 23.818277 23.318416 22.823717 22.334193 21.849855 21.370716 20.896788 20.428082 19.964609 19.506380 19.053405 18.605694 18.163257 17.726102 17.294240 16.867677 16.446423 16.030486 15.619872 15.214589 14.814643 14.420041 14.030789 13.646892 13.268356 12.895185 12.527384 12.164957 11.807908 11.456240 11.109956 10.769059 10.433551 10.103433 9.778709 9.459377 9.145441 8.836899 8.533751 8.235999 7.943640 7.656674 7.375099 7.098914 6.828117 6.562704 6.302673 6.048022 5.798746 5.554841 5.316303 5.083128 4.855310 4.632844 4.415725 4.203946 3.997501 3.796383 3.600585 3.410101 3.224921 3.045038 2.870444 2.701129 2.537085 2.378303 2.224772 2.076482 1.933424 1.795586 1.662958 1.535527 1.413283 1.296214 1.184307 1.077550 0.975930 0.879434 0.788048 0.701758 0.620552 0.544414 0.473330 0.407285 0.346264 0.290251 0.239231 0.193189 0.152107 0.115969 0.084759 0.058460 0.037055 0.020525 0.008855 0.002024 0.000000 0.000000 0.000000 0.000000 0.000000 0.000000 0.000000 0.000000 0.000000 0.000000 0.000000 0.000000 0.000000 0.000000 0.000000 0.000000 0.000000 0.000000 0.000000 0.000000 0.000000 0.000000 0.000000 0.000000 0.000000 0.000000 0.000000 0.000000 0.000000 0.000000 0.000000 0.000000 0.000000 0.000000 0.000000 0.000000 0.000000 0.000000 0.000000 0.000000 0.000000 0.000000 0.000000 0.000000 0.000000 0.000000 0.000000 0.000000 0.000000 0.000000 0.000000 0.000000 0.000000 0.000000 0.000000 0.000000 0.000000 0.000000 0.000000 0.000000 0.000000 0.000000 0.000000 0.000000 0.000000 0.000000 0.000000 0.000000 0.000000 0.000000 0.000000 0.000000 0.000000 0.000000 0.000000 0.000000 0.000000 0.000000 0.000000 0.000000 0.000000 0.000000 0.000000 0.000000 0.000000 0.000000 0.000000 0.000000 0.000000 0.000000 0.000000 0.000000 0.000000 0.000000 0.000000 0.000000 0.000000 0.000000 0.000000 0.000000 0.000000 0.000000 0.000000 0.000000 0.000000 0.000000 0.000000 0.000000 0.000000 0.000000 0.000000 0.000000 0.000000 0.000000 0.000000 0.000000 0.000000 0.000000 0.000000 0.000000 0.000000 0.000000 0.000000 0.000000 0.000000 0.000000 0.000000 0.000000 0.000000 0.000000 0.000000 0.000000 0.000000 0.000000 0.000000 0.000000 0.000000 0.000000 0.000000 0.000000 0.000000 0.000000 0.000000 0.000000 0.000000
64.328181 63.542806 62.761250 61.983543 61.209713 60.439790 59.673801 58.911774 58.153739 57.399722 56.649751 55.903855 55.162061 54.424395 53.690885 52.961559 52.236441 51.515560 50.798941 50.086610 49.378593 48.674917 47.975606 47.280685 46.590180 45.904115 45.222515 44.545405 43.872808 43.204748 42.541248 41.882333 41.228024 40.578346 39.933320 39.292969 38.657314 38.026378 37.400182 36.778747 36.162095 35.550245 34.943218 34.341034 33.743713 33.151274 32.563736 31.981119 31.403441 30.830720 30.262973 29.700220 29.142476 28.589758 28.042085 27.499471 26.961932 26.429485 25.902145 25.379926 24.862844 24.350912 23.844144 23.342555 22.846157 22.354964 21.868987 21.388240 20.912733 20.442479 19.977488 19.517772 19.063340 18.614204 18.170372 17.731854 17.298658 16.870794 16.448270 16.031094 15.619272 15.212813 14.811722 14.416007 14.025673 13.640726 13.261172 12.887014 12.518258 12.154908 11.796967 11.444440 11.097328 10.755635 10.419362 10.088513 9.763087 9.443087 9.128513 8.819366 8.515646 8.217351 7.924483 7.637039 7.355017 7.078417 6.807236 6.541472 6.281121 6.026181 5.776647 5.532515 5.293782 5.060443 4.832492 4.609924 4.392734 4.180914 3.974460 3.773363 3.577617 3.387214 3.202146 3.022405 2.847983 2.678871 2.515059 2.356538 2.203298 2.055330 1.912621 1.775162 1.642942 1.515948 1.394170 1.277595 1.166210 1.060004 0.958962 0.863072 0.772321 0.686694 0.606176 0.530755 0.460414 0.395139 0.334915 0.279725 0.229555 0.184388 0.144208 0.108997 0.078740 0.053419 0.033016 0.017515 0.006896 0.001143 0.000000 0.000000 0.000000 0.000000 0.000000 0.000000 0.000000 0.000000 0.000000 0.000000 0.000000 0.000000 0.000000 0.000000 0.000000 0.000000 0.000000 0.000000 0.000000 0.000000 0.000000 0.000000 0.000000 0.000000 0.000000 0.000000 0.000000 0.000000 0.000000 0.000000 0.000000 0.000000 0.000000 0.000000 0.000000 0.000000 0.000000 0.000000 0.000000 0.000000 0.000000 0.000000 0.000000 0.000000 0.000000 0.000000 0.000000 0.000000 0.000000 0.000000 0.000000 0.000000 0.000000 0.000000 0.000000 0.000000 0.000000 0.000000 0.000000 0.000000 0.000000 0.000000 0.000000 0.000000 0.000000 0.000000 0.000000 0.000000 0.000000 0.000000 0.000000 0.000000 0.000000 0.000000 0.000000 0.000000 0.000000 0.000000 0.000000 0.000000 0.000000 0.000000 0.000000 0.000000 0.000000 0.000000 0.000000 0.000000 0.000000 0.000000 0.000000 0.000000 0.000000 0.000000 0.000000 0.000000 0.000000 0.000000 0.000000 0.000000 0.000000 0.000000 0.000000 0.000000 0.000000 0.000000 0.000000 0.000000 0.000000 0.000000 0.000000 0.000000 0.000000 0.000000 0.000000 0.000000 0.000000 0.000000 0.000000 0.000000 0.000000 0.000000 0.000000 0.000000 0.000000 0.000000 0.000000 0.000000 0.000000 0.000000 0.000000 0.000000 0.000000 0.000000 0.000000 0.000000 0.000000 0.000000 0.000000 0.000000 0.000000 0.000000 0.000000 0.000000 0.000000
64.512912 63.724331 62.939586 62.158706 61.381719 60.608655 59.839543 59.074410 58.313286 57.556198 56.803175 56.054245 55.309435 54.568773 53.832286 53.100001 52.371945 51.648146 50.928629 50.213421 49.502548 48.796037 48.093912 47.396199 46.702924 46.014111 45.329786 44.649972 43.974695 43.303978 42.637846 41.976320 41.319426 40.667186 40.019623 39.376759 38.738617 38.105219 37.476585 36.852739 36.233700 35.619490 35.010129 34.405637 33.806035 33.211343 32.621578 32.036761 31.456910 30.882044 30.312181 29.747338 29.187533 28.632783 28.083106 27.538516 26.999031 26.464667 25.935438 25.411360 24.892448 24.378716 23.870178 23.366849 22.868741 22.375867 21.888240 21.405873 20.928778 20.456965 19.990447 19.529234 19.073337 18.622766 18.177530 17.737640 17.303104 16.873930 16.450128 16.031705 15.618669 15.211026 14.808784 14.411950 14.020528 13.634525 13.253947 12.878797 12.509081 12.144803 11.785967 11.432576 11.084632 10.742139 10.405100 10.073515 9.747386 9.426715 9.111503 8.801749 8.497453 8.198616 7.905237 7.617313 7.334845 7.057830 6.786266 6.520150 6.259480 6.004251 5.754461 5.510105 5.271178 5.037677 4.809595 4.586928 4.369669 4.157813 3.951352 3.750279 3.554589 3.364271 3.179320 2.999727 2.825482 2.656577 2.493002 2.334749 2.181806 2.034164 1.891812 1.754738 1.622933 1.496383 1.375078 1.259004 1.148150 1.042502 0.942047 0.846773 0.756664 0.671707 0.591888 0.517192 0.447605 0.383110 0.323692 0.269336 0.220026 0.175745 0.136476 0.102204 0.072910 0.048578 0.029190 0.014728 0.005174 0.000509 0.000000 0.000000 0.000000 0.000000 0.000000 0.000000 0.000000 0.000000 0.000000 0.000000 0.000000 0.000000 0.000000 0.000000 0.000000 0.000000 0.000000 0.000000 0.000000 0.000000 0.000000 0.000000 0.000000 0.000000 0.000000 0.000000 0.000000 0.000000 0.000000 0.000000 0.000000 0.000000 0.000000 0.000000 0.000000 0.000000 0.000000 0.000000 0.000000 0.000000 0.000000 0.000000 0.000000 0.000000 0.000000 0.000000 0.000000 0.000000 0.000000 0.000000 0.000000 0.000000 0.000000 0.000000 0.000000 0.000000 0.000000 0.000000 0.000000 0.000000 0.000000 0.000000 0.000000 0.000000 0.000000 0.000000 0.000000 0.000000 0.000000 0.000000 0.000000 0.000000 0.000000 0.000000 0.000000 0.000000 0.000000 0.000000 0.000000 0.000000 0.000000 0.000000 0.000000 0.000000 0.000000 0.000000 0.000000 0.000000 0.000000 0.000000 0.000000 0.000000 0.000000 0.000000 0.000000 0.000000 0.000000 0.000000 0.000000 0.000000 0.000000 0.000000 0.000000 0.000000 0.000000 0.000000 0.000000 0.000000 0.000000 0.000000 0.000000 0.000000 0.000000 0.000000 0.000000 0.000000 0.000000 0.000000 0.000000 0.000000 0.000000 0.000000 0.000000 0.000000 0.000000 0.000000 0.000000 0.000000 0.000000 0.000000 0.000000 0.000000 0.000000 0.000000 0.000000 0.000000 0.000000 0.000000 0.000000 0.000000 0.000000 0.000000 0.000000 0.000000 0.000000
64.698946 63.907137 63.119180 62.335103 61.554937 60.778711 60.006453 59.238192 58.473957 57.713777 56.957680 56.205693 55.457846 54.714166 53.974680 53.239416 52.508401 51.781663 51.059227 50.341121 49.627372 48.918004 48.213045 47.512520 46.816455 46.124874 45.437804 44.755268 44.077291 43.403898 42.735113 42.070959 41.411461 40.756641 40.106522 39.461127 38.820479 38.184600 37.553512 36.927236 36.305794 35.689207 35.077496 34.470680 33.868781 33.271818 32.679811 32.092778 31.510739 30.933713 30.361718 29.794771 29.232891 28.676094 28.124398 27.577819 27.036374 26.500079 25.968949 25.442999 24.922244 24.406700 23.896380 23.391298 22.891468 22.396903 21.907616 21.423619 20.944923 20.471542 20.003487 19.540768 19.083395 18.631380 18.184732 17.743461 17.307576 16.877085 16.451997 16.032320 15.618062 15.209229 14.805829 14.407869 14.015353 13.628289 13.246681 12.870535 12.499854 12.134643 11.774907 11.420648 11.071869 10.728573 10.390763 10.058440 9.731606 9.410261 9.094407 8.784045 8.479173 8.179792 7.885901 7.597498 7.314583 7.037152 6.765205 6.498739 6.237749 5.982234 5.732188 5.487609 5.248491 5.014829 4.786620 4.563855 4.346531 4.134641 3.928177 3.727133 3.531501 3.341274 3.156444 2.977002 2.802939 2.634247 2.470915 2.312935 2.160295 2.012986 1.870997 1.734316 1.602932 1.476833 1.356008 1.240444 1.130128 1.025047 0.925187 0.830536 0.741079 0.656802 0.577691 0.503730 0.434904 0.371199 0.312598 0.259086 0.210646 0.167261 0.128916 0.095593 0.067274 0.043942 0.025580 0.012169 0.003690 0.000127 0.000000 0.000000 0.000000 0.000000 0.000000 0.000000 0.000000 0.000000 0.000000 0.000000 0.000000 0.000000 0.000000 0.000000 0.000000 0.000000 0.000000 0.000000 0.000000 0.000000 0.000000 0.000000 0.000000 0.000000 0.000000 0.000000 0.000000 0.000000 0.000000 0.000000 0.000000 0.000000 0.000000 0.000000 0.000000 0.000000 0.000000 0.000000 0.000000 0.000000 0.000000 0.000000 0.000000 0.000000 0.000000 0.000000 0.000000 0.000000 0.000000 0.000000 0.000000 0.000000 0.000000 0.000000 0.000000 0.000000 0.000000 0.000000 0.000000 0.000000 0.000000 0.000000 0.000000 0.000000 0.000000 0.000000 0.000000 0.000000 0.000000 0.000000 0.000000 0.000000 0.000000 0.000000 0.000000 0.000000 0.000000 0.000000 0.000000 0.000000 0.000000 0.000000 0.000000 0.000000 0.000000 0.000000 0.000000 0.000000 0.000000 0.000000 0.000000 0.000000 0.000000 0.000000 0.000000 0.000000 0.000000 0.000000 0.000000 0.000000 0.000000 0.000000 0.000000 0.000000 0.000000 0.000000 0.000000 0.000000 0.000000 0.000000 0.000000 0.000000 0.000000 0.000000 0.000000 0.000000 0.000000 0.000000 0.000000 0.000000 0.000000 0.000000 0.000000 0.000000 0.000000 0.000000 0.000000 0.000000 0.000000 0.000000 0.000000 0.000000 0.000000 0.000000 0.000000 0.000000 0.000000 0.000000 0.000000 0.000000 0.000000 0.000000 0.000000 0.000000 0.000000
64.886296 64.091236 63.300044 62.512749 61.729381 60.949969 60.174543 59.403132 58.635764 57.872469 57.113275 56.358211 55.607305 54.860584 54.118078 53.379814 52.645818 51.916119 51.190744 50.469719 49.753072 49.040828 48.333015 47.629657 46.930781 46.236412 45.546577 44.861298 44.180603 43.504514 42.833057 42.166256 41.504134 40.846715 40.194022 39.546079 38.902907 38.264529 37.630968 37.002246 36.378383 35.759402 35.145323 34.536167 33.931954 33.332704 32.738438 32.149174 31.564932 30.985730 30.411587 29.842522 29.278551 28.719693 28.165965 27.617383 27.073964 26.535724 26.002679 25.474844 24.952235 24.434866 23.922752 23.415906 22.914342 22.418074 21.927115 21.441476 20.961171 20.486211 20.016608 19.552373 19.093516 18.640048 18.191979 17.749318 17.312075 16.880259 16.453877 16.032939 15.617451 15.207421 14.802857 14.403764 14.010149 13.622017 13.239374 12.862226 12.490575 12.124428 11.763786 11.408655 11.059038 10.714935 10.376351 10.043287 9.715744 9.393724 9.077227 8.766254 8.460805 8.160878 7.866474 7.577592 7.294229 7.016383 6.744053 6.477236 6.215928 5.960127 5.709828 5.465027 5.225719 4.991900 4.763564 4.540706 4.323319 4.111398 3.904935 3.703923 3.508354 3.318222 3.133517 2.954232 2.780356 2.611882 2.448799 2.291097 2.138767 1.991797 1.850177 1.713895 1.582940 1.457300 1.336963 1.221915 1.112145 1.007639 0.908384 0.814365 0.725568 0.641980 0.563585 0.490369 0.422316 0.359410 0.301636 0.248978 0.201418 0.158942 0.121530 0.089167 0.061834 0.039514 0.022189 0.009841 0.002451 0.000000 0.000000 0.000000 0.000000 0.000000 0.000000 0.000000 0.000000 0.000000 0.000000 0.000000 0.000000 0.000000 0.000000 0.000000 0.000000 0.000000 0.000000 0.000000 0.000000 0.000000 0.000000 0.000000 0.000000 0.000000 0.000000 0.000000 0.000000 0.000000 0.000000 0.000000 0.000000 0.000000 0.000000 0.000000 0.000000 0.000000 0.000000 0.000000 0.000000 0.000000 0.000000 0.000000 0.000000 0.000000 0.000000 0.000000 0.000000 0.000000 0.000000 0.000000 0.000000 0.000000 0.000000 0.000000 0.000000 0.000000 0.000000 0.000000 0.000000 0.000000 0.000000 0.000000 0.000000 0.000000 0.000000 0.000000 0.000000 0.000000 0.000000 0.000000 0.000000 0.000000 0.000000 0.000000 0.000000 0.000000 0.000000 0.000000 0.000000 0.000000 0.000000 0.000000 0.000000 0.000000 0.000000 0.000000 0.000000 0.000000 0.000000 0.000000 0.000000 0.000000 0.000000 0.000000 0.000000 0.000000 0.000000 0.000000 0.000000 0.000000 0.000000 0.000000 0.000000 0.000000 0.000000 0.000000 0.000000 0.000000 0.000000 0.000000 0.000000 0.000000 0.000000 0.000000 0.000000 0.000000 0.000000 0.000000 0.000000 0.000000 0.000000 0.000000 0.000000 0.000000 0.000000 0.000000 0.000000 0.000000 0.000000 0.000000 0.000000 0.000000 0.000000 0.000000 0.000000 0.000000 0.000000 0.000000 0.000000 0.000000 0.000000 0.000000 0.000000 0.000000 0.000000
65.074975 64.276642 63.482191 62.691655 61.905062 61.122442 60.343825 59.569241 58.798718 58.032286 57.269973 56.511809 55.757821 55.008039 54.262491 53.521204 52.784206 52.051525 51.323189 50.599224 49.879658 49.164517 48.453828 47.747617 47.045910 46.348733 45.656112 44.968072 44.284637 43.605834 42.931686 42.262217 41.597453 40.937416 40.282130 39.631619 38.985905 38.345011 37.708959 37.077772 36.451471 35.830079 35.213615 34.602101 33.995557 33.394005 32.797463 32.205952 31.619490 31.038098 30.461793 29.890593 29.324518 28.763584 28.207809 27.657209 27.111803 26.571605 26.036632 25.506899 24.982422 24.463216 23.949294 23.440672 22.937363 22.439381 21.946738 21.459448 20.977522 20.500973 20.029812 19.564051 19.103700 18.648769 18.199270 17.755211 17.316602 16.883451 16.455768 16.033561 15.616837 15.205603 14.799867 14.399636 14.004914 13.615709 13.232026 12.853870 12.481245 12.114155 11.752605 11.396598 11.046137 10.701225 10.361864 10.028056 9.699802 9.377104 9.059962 8.748376 8.442347 8.141874 7.846957 7.557593 7.273782 6.995522 6.722809 6.455642 6.194017 5.937931 5.687379 5.442358 5.202863 4.968888 4.740429 4.517480 4.300034 4.088085 3.881626 3.680650 3.485149 3.295115 3.110541 2.931416 2.757733 2.589482 2.426653 2.269237 2.117222 1.970598 1.829354 1.693478 1.562959 1.437785 1.317943 1.203420 1.094204 0.990282 0.891638 0.798260 0.710133 0.627243 0.549575 0.477113 0.409841 0.347745 0.290809 0.239015 0.192347 0.150788 0.114322 0.082930 0.056595 0.035298 0.019023 0.007749 0.001459 0.000000 0.000000 0.000000 0.000000 0.000000 0.000000 0.000000 0.000000 0.000000 0.000000 0.000000 0.000000 0.000000 0.000000 0.000000 0.000000 0.000000 0.000000 0.000000 0.000000 0.000000 0.000000 0.000000 0.000000 0.000000 0.000000 0.000000 0.000000 0.000000 0.000000 0.000000 0.000000 0.000000 0.000000 0.000000 0.000000 0.000000 0.000000 0.000000 0.000000 0.000000 0.000000 0.000000 0.000000 0.000000 0.000000 0.000000 0.000000 0.000000 0.000000 0.000000 0.000000 0.000000 0.000000 0.000000 0.000000 0.000000 0.000000 0.000000 0.000000 0.000000 0.000000 0.000000 0.000000 0.000000 0.000000 0.000000 0.000000 0.000000 0.000000 0.000000 0.000000 0.000000 0.000000 0.000000 0.000000 0.000000 0.000000 0.000000 0.000000 0.000000 0.000000 0.000000 0.000000 0.000000 0.000000 0.000000 0.000000 0.000000 0.000000 0.000000 0.000000 0.000000 0.000000 0.000000 0.000000 0.000000 0.000000 0.000000 0.000000 0.000000 0.000000 0.000000 0.000000 0.000000 0.000000 0.000000 0.000000 0.000000 0.000000 0.000000 0.000000 0.000000 0.000000 0.000000 0.000000 0.000000 0.000000 0.000000 0.000000 0.000000 0.000000 0.000000 0.000000 0.000000 0.000000 0.000000 0.000000 0.000000 0.000000 0.000000 0.000000 0.000000 0.000000 0.000000 0.000000 0.000000 0.000000 0.000000 0.000000 0.000000 0.000000 0.000000 0.000000 0.000000 0.000000
65.264997 64.463366 63.665635 62.871834 62.081993 61.296143 60.514312 59.736532 58.962830 58.193238 57.427784 56.666497 55.909407 55.156541 54.407928 53.663597 52.923575 52.187891 51.456572 50.729646 50.007139 49.289080 48.575495 47.866409 47.161851 46.461845 45.766418 45.075595 44.389402 43.707863 43.031005 42.358850 41.691423 41.028750 40.370852 39.717754 39.069479 38.426051 37.787490 37.153821 36.525064 35.901242 35.282376 34.668487 34.059597 33.455725 32.856891 32.263116 31.674420 31.090820 30.512337 29.938989 29.370793 28.807769 28.249932 27.697301 27.149893 26.607723 26.070809 25.539165 25.012807 24.491751 23.976010 23.465600 22.960533 22.460825 21.966488 21.477534 20.993977 20.515828 20.043099 19.575802 19.113947 18.657545 18.206606 17.761140 17.321156 16.886664 16.457671 16.034187 15.616219 15.203774 14.796860 14.395483 13.999650 13.609366 13.224636 12.845467 12.471862 12.103826 11.741363 11.384476 11.033168 10.687442 10.347301 10.012745 9.683778 9.360399 9.042610 8.730410 8.423800 8.122780 7.827348 7.537503 7.253244 6.974568 6.701473 6.433957 6.172015 5.915645 5.664843 5.419603 5.179922 4.945794 4.717214 4.494176 4.276674 4.064701 3.858250 3.657313 3.461884 3.271954 3.087514 2.908556 2.735071 2.567049 2.404480 2.247354 2.095660 1.949389 1.808527 1.673065 1.542989 1.418288 1.298950 1.184960 1.076306 0.972975 0.874953 0.782225 0.694777 0.612594 0.535661 0.463963 0.397484 0.336208 0.280119 0.229200 0.183434 0.142805 0.107294 0.076885 0.051559 0.031298 0.016084 0.005897 0.000720 0.000000 0.000000 0.000000 0.000000 0.000000 0.000000 0.000000 0.000000 0.000000 0.000000 0.000000 0.000000 0.000000 0.000000 0.000000 0.000000 0.000000 0.000000 0.000000 0.000000 0.000000 0.000000 0.000000 0.000000 0.000000 0.000000 0.000000 0.000000 0.000000 0.000000 0.000000 0.000000 0.000000 0.000000 0.000000 0.000000 0.000000 0.000000 0.000000 0.000000 0.000000 0.000000 0.000000 0.000000 0.000000 0.000000 0.000000 0.000000 0.000000 0.000000 0.000000 0.000000 0.000000 0.000000 0.000000 0.000000 0.000000 0.000000 0.000000 0.000000 0.000000 0.000000 0.000000 0.000000 0.000000 0.000000 0.000000 0.000000 0.000000 0.000000 0.000000 0.000000 0.000000 0.000000 0.000000 0.000000 0.000000 0.000000 0.000000 0.000000 0.000000 0.000000 0.000000 0.000000 0.000000 0.000000 0.000000 0.000000 0.000000 0.000000 0.000000 0.000000 0.000000 0.000000 0.000000 0.000000 0.000000 0.000000 0.000000 0.000000 0.000000 0.000000 0.000000 0.000000 0.000000 0.000000 0.000000 0.000000 0.000000 0.000000 0.000000 0.000000 0.000000 0.000000 0.000000 0.000000 0.000000 0.000000 0.000000 0.000000 0.000000 0.000000 0.000000 0.000000 0.000000 0.000000 0.000000 0.000000 0.000000 0.000000 0.000000 0.000000 0.000000 0.000000 0.000000 0.000000 0.000000 0.000000 0.000000 0.000000 0.000000 0.000000 0.000000 0.000000 0.000000 0.000000
65.456376 64.651424 63.850389 63.053299 62.260187 61.471082 60.686015 59.905015 59.128113 58.355339 57.586720 56.822288 56.062072 55.306099 54.554400 53.807002 53.063935 52.325225 51.590902 50.860992 50.135525 49.414526 48.698022 47.986042 47.278611 46.575756 45.877502 45.183877 44.494904 43.810611 43.131021 42.456160 41.786052 41.120722 40.460194 39.804491 39.153636 38.507654 37.866567 37.230396 36.599166 35.972897 35.351612 34.735331 34.124076 33.517868 32.916726 32.320671 31.729723 31.143901 30.563224 29.987711 29.417381 28.852250 28.292338 27.737661 27.188237 26.644082 26.105212 25.571644 25.043392 24.520473 24.002900 23.490689 22.983854 22.482407 21.986364 21.495736 21.010536 20.530777 20.056470 19.587626 19.124258 18.666375 18.213987 17.767105 17.325738 16.889895 16.459586 16.034817 15.615597 15.201934 14.793835 14.391306 13.994355 13.602985 13.217204 12.837016 12.462427 12.093439 11.730058 11.372287 11.020128 10.673585 10.332660 9.997355 9.667671 9.343609 9.025171 8.712356 8.405164 8.103594 7.807647 7.517320 7.232612 6.953521 6.680045 6.412179 6.149922 5.893269 5.642217 5.396761 5.156896 4.922618 4.693919 4.470796 4.253240 4.041246 3.834807 3.633914 3.438561 3.248738 3.064438 2.885652 2.712369 2.544582 2.382279 2.225450 2.074084 1.928171 1.787700 1.652657 1.523032 1.398812 1.279985 1.166536 1.058453 0.955722 0.858329 0.766260 0.679500 0.598034 0.521847 0.450923 0.385246 0.324800 0.269569 0.219536 0.174683 0.134994 0.100451 0.071036 0.046731 0.027518 0.013377 0.004290 0.000237 0.000000 0.000000 0.000000 0.000000 0.000000 0.000000 0.000000 0.000000 0.000000 0.000000 0.000000 0.000000 0.000000 0.000000 0.000000 0.000000 0.000000 0.000000 0.000000 0.000000 0.000000 0.000000 0.000000 0.000000 0.000000 0.000000 0.000000 0.000000 0.000000 0.000000 0.000000 0.000000 0.000000 0.000000 0.000000 0.000000 0.000000 0.000000 0.000000 0.000000 0.000000 0.000000 0.000000 0.000000 0.000000 0.000000 0.000000 0.000000 0.000000 0.000000 0.000000 0.000000 0.000000 0.000000 0.000000 0.000000 0.000000 0.000000 0.000000 0.000000 0.000000 0.000000 0.000000 0.000000 0.000000 0.000000 0.000000 0.000000 0.000000 0.000000 0.000000 0.000000 0.000000 0.000000 0.000000 0.000000 0.000000 0.000000 0.000000 0.000000 0.000000 0.000000 0.000000 0.000000 0.000000 0.000000 0.000000 0.000000 0.000000 0.000000 0.000000 0.000000 0.000000 0.000000 0.000000 0.000000 0.000000 0.000000 0.000000 0.000000 0.000000 0.000000 0.000000 0.000000 0.000000 0.000000 0.000000 0.000000 0.000000 0.000000 0.000000 0.000000 0.000000 0.000000 0.000000 0.000000 0.000000 0.000000 0.000000 0.000000 0.000000 0.000000 0.000000 0.000000 0.000000 0.000000 0.000000 0.000000 0.000000 0.000000 0.000000 0.000000 0.000000 0.000000 0.000000 0.000000 0.000000 0.000000 0.000000 0.000000 0.000000 0.000000 0.000000 0.000000 0.000000 0.000000
65.649124 64.840828 64.036465 63.236064 62.439657 61.647274 60.858947 60.074705 59.294579 58.518598 57.746793 56.979193 56.215828 55.456726 54.701918 53.951431 53.205295 52.463538 51.726189 50.993274 50.264823 49.540863 48.821421 48.106524 47.396199 46.690473 45.989373 45.292924 44.601152 43.914083 43.231743 42.554156 41.881347 41.213341 40.550162 39.891835 39.238382 38.589827 37.946194 37.307505 36.673783 36.045049 35.421327 34.802637 34.189000 33.580438 32.976971 32.378620 31.785404 31.197344 30.614457 30.036764 29.464283 28.897032 28.335029 27.778292 27.226838 26.680683 26.139844 25.604337 25.074179 24.549384 24.029967 23.515942 23.007326 22.504130 22.006369 21.514055 21.027202 20.545821 20.069925 19.599526 19.134634 18.675260 18.221414 17.773107 17.330348 16.893147 16.461511 16.035451 15.614972 15.200084 14.790792 14.387105 13.989029 13.596568 13.209730 12.828518 12.452938 12.082995 11.718691 11.360032 11.007019 10.659655 10.317943 9.981885 9.651482 9.326735 9.007645 8.694212 8.386436 8.084317 7.787853 7.497044 7.211887 6.932381 6.658522 6.390309 6.127737 5.870803 5.619503 5.373832 5.133785 4.899358 4.670544 4.447338 4.229732 4.017721 3.811297 3.610452 3.415179 3.225469 3.041313 2.862703 2.689629 2.522082 2.360050 2.203525 2.052494 1.906946 1.766871 1.632256 1.503090 1.379358 1.261049 1.148150 1.040646 0.938524 0.841770 0.750369 0.664306 0.583566 0.508134 0.437994 0.373130 0.313525 0.259162 0.210026 0.166098 0.127361 0.093797 0.065388 0.042115 0.023961 0.010906 0.002930 0.000015 0.000000 0.000000 0.000000 0.000000 0.000000 0.000000 0.000000 0.000000 0.000000 0.000000 0.000000 0.000000 0.000000 0.000000 0.000000 0.000000 0.000000 0.000000 0.000000 0.000000 0.000000 0.000000 0.000000 0.000000 0.000000 0.000000 0.000000 0.000000 0.000000 0.000000 0.000000 0.000000 0.000000 0.000000 0.000000 0.000000 0.000000 0.000000 0.000000 0.000000 0.000000 0.000000 0.000000 0.000000 0.000000 0.000000 0.000000 0.000000 0.000000 0.000000 0.000000 0.000000 0.000000 0.000000 0.000000 0.000000 0.000000 0.000000 0.000000 0.000000 0.000000 0.000000 0.000000 0.000000 0.000000 0.000000 0.000000 0.000000 0.000000 0.000000 0.000000 0.000000 0.000000 0.000000 0.000000 0.000000 0.000000 0.000000 0.000000 0.000000 0.000000 0.000000 0.000000 0.000000 0.000000 0.000000 0.000000 0.000000 0.000000 0.000000 0.000000 0.000000 0.000000 0.000000 0.000000 0.000000 0.000000 0.000000 0.000000 0.000000 0.000000 0.000000 0.000000 0.000000 0.000000 0.000000 0.000000 0.000000 0.000000 0.000000 0.000000 0.000000 0.000000 0.000000 0.000000 0.000000 0.000000 0.000000 0.000000 0.000000 0.000000 0.000000 0.000000 0.000000 0.000000 0.000000 0.000000 0.000000 0.000000 0.000000 0.000000 0.000000 0.000000 0.000000 0.000000 0.000000 0.000000 0.000000 0.000000 0.000000 0.000000 0.000000 0.000000 0.000000 0.000000 0.000000
65.843257 65.031593 64.223877 63.420140 62.620415 61.824731 61.033120 60.245612 59.462239 58.683029 57.908014 57.137223 56.370686 55.608432 54.850492 54.096894 53.347667 52.602840 51.862442 51.126501 50.395044 49.668101 48.945698 48.227863 47.514624 46.806006 46.102038 45.402744 44.708152 44.018288 43.333176 42.652843 41.977313 41.306612 40.640763 39.979792 39.323722 38.672576 38.026378 37.385152 36.748919 36.117703 35.491526 34.870408 34.254373 33.643440 33.037632 32.436967 31.841467 31.251152 30.666040 30.086151 29.511504 28.942117 28.378009 27.819196 27.265697 26.717529 26.174707 25.637249 25.105170 24.578485 24.057211 23.541361 23.030951 22.525993 22.026503 21.532492 21.043974 20.560962 20.083467 19.611501 19.145075 18.684200 18.228888 17.779147 17.334987 16.896418 16.463449 16.036088 15.614343 15.198222 14.787732 14.382879 13.983671 13.590114 13.202212 12.819971 12.443397 12.072492 11.707262 11.347709 10.993838 10.645650 10.303148 9.966333 9.635208 9.309774 8.990031 8.675978 8.367617 8.064947 7.767966 7.476674 7.191068 6.911146 6.636907 6.368345 6.105460 5.848246 5.596699 5.350815 5.110589 4.876015 4.647089 4.423803 4.206150 3.994126 3.787720 3.586928 3.391739 3.202146 3.018140 2.839712 2.666852 2.499550 2.337796 2.181580 2.030890 1.885715 1.746043 1.611863 1.483162 1.359927 1.242145 1.129803 1.022887 0.921383 0.825277 0.734553 0.649197 0.569193 0.494526 0.425180 0.361139 0.302385 0.248902 0.200673 0.157681 0.119907 0.087333 0.059942 0.037715 0.020632 0.008674 0.001823 0.000000 0.000000 0.000000 0.000000 0.000000 0.000000 0.000000 0.000000 0.000000 0.000000 0.000000 0.000000 0.000000 0.000000 0.000000 0.000000 0.000000 0.000000 0.000000 0.000000 0.000000 0.000000 0.000000 0.000000 0.000000 0.000000 0.000000 0.000000 0.000000 0.000000 0.000000 0.000000 0.000000 0.000000 0.000000 0.000000 0.000000 0.000000 0.000000 0.000000 0.000000 0.000000 0.000000 0.000000 0.000000 0.000000 0.000000 0.000000 0.000000 0.000000 0.000000 0.000000 0.000000 0.000000 0.000000 0.000000 0.000000 0.000000 0.000000 0.000000 0.000000 0.000000 0.000000 0.000000 0.000000 0.000000 0.000000 0.000000 0.000000 0.000000 0.000000 0.000000 0.000000 0.000000 0.000000 0.000000 0.000000 0.000000 0.000000 0.000000 0.000000 0.000000 0.000000 0.000000 0.000000 0.000000 0.000000 0.000000 0.000000 0.000000 0.000000 0.000000 0.000000 0.000000 0.000000 0.000000 0.000000 0.000000 0.000000 0.000000 0.000000 0.000000 0.000000 0.000000 0.000000 0.000000 0.000000 0.000000 0.000000 0.000000 0.000000 0.000000 0.000000 0.000000 0.000000 0.000000 0.000000 0.000000 0.000000 0.000000 0.000000 0.000000 0.000000 0.000000 0.000000 0.000000 0.000000 0.000000 0.000000 0.000000 0.000000 0.000000 0.000000 0.000000 0.000000 0.000000 0.000000 0.000000 0.000000 0.000000 0.000000 0.000000 0.000000 0.000000 0.000000 0.000000 0.000000
66.038789 65.223731 64.412639 63.605543 62.802475 62.003466 61.208547 60.417750 59.631105 58.848643 58.070394 57.296389 56.526657 55.761229 55.000133 54.243401 53.491061 52.743142 51.999672 51.260681 50.526198 49.796249 49.070864 48.350070 47.633893 46.922363 46.215505 45.513346 44.815913 44.123232 43.435329 42.752229 42.073959 41.400542 40.732004 40.068369 39.409662 38.755906 38.107125 37.463342 36.824581 36.190864 35.562214 34.938651 34.320199 33.706879 33.098711 32.495717 31.897916 31.305329 30.717976 30.135875 29.559047 28.987509 28.421279 27.860377 27.304818 26.754622 26.209803 25.670379 25.136366 24.607780 24.084635 23.566947 23.054731 22.547999 22.046768 21.551048 21.060855 20.576199 20.097094 19.623551 19.155582 18.693197 18.236408 17.785224 17.339654 16.899710 16.465399 16.036729 15.613710 15.196349 14.784653 14.378629 13.978283 13.583622 13.194651 12.811376 12.433801 12.061931 11.695769 11.335319 10.980585 10.631569 10.288274 9.950701 9.618851 9.292727 8.972328 8.657654 8.348707 8.045484 7.747985 7.456209 7.170154 6.889817 6.615196 6.346288 6.083090 5.825597 5.573805 5.327710 5.087307 4.852589 4.623552 4.400190 4.182494 3.970459 3.764077 3.563340 3.368241 3.178770 2.994918 2.816677 2.644036 2.476986 2.315516 2.159616 2.009273 1.864478 1.725217 1.591479 1.463251 1.340521 1.223274 1.111498 1.005178 0.904301 0.808851 0.718814 0.634175 0.554917 0.481025 0.412484 0.349275 0.291384 0.238792 0.191482 0.149436 0.112637 0.081066 0.054704 0.033534 0.017535 0.006688 0.000974 0.000000 0.000000 0.000000 0.000000 0.000000 0.000000 0.000000 0.000000 0.000000 0.000000 0.000000 0.000000 0.000000 0.000000 0.000000 0.000000 0.000000 0.000000 0.000000 0.000000 0.000000 0.000000 0.000000 0.000000 0.000000 0.000000 0.000000 0.000000 0.000000 0.000000 0.000000 0.000000 0.000000 0.000000 0.000000 0.000000 0.000000 0.000000 0.000000 0.000000 0.000000 0.000000 0.000000 0.000000 0.000000 0.000000 0.000000 0.000000 0.000000 0.000000 0.000000 0.000000 0.000000 0.000000 0.000000 0.000000 0.000000 0.000000 0.000000 0.000000 0.000000 0.000000 0.000000 0.000000 0.000000 0.000000 0.000000 0.000000 0.000000 0.000000 0.000000 0.000000 0.000000 0.000000 0.000000 0.000000 0.000000 0.000000 0.000000 0.000000 0.000000 0.000000 0.000000 0.000000 0.000000 0.000000 0.000000 0.000000 0.000000 0.000000 0.000000 0.000000 0.000000 0.000000 0.000000 0.000000 0.000000 0.000000 0.000000 0.000000 0.000000 0.000000 0.000000 0.000000 0.000000 0.000000 0.000000 0.000000 0.000000 0.000000 0.000000 0.000000 0.000000 0.000000 0.000000 0.000000 0.000000 0.000000 0.000000 0.000000 0.000000 0.000000 0.000000 0.000000 0.000000 0.000000 0.000000 0.000000 0.000000 0.000000 0.000000 0.000000 0.000000 0.000000 0.000000 0.000000 0.000000 0.000000 0.000000 0.000000 0.000000 0.000000 0.000000 0.000000 0.000000 0.000000 0.000000
66.235732 65.417258 64.602765 63.792285 62.985850 62.183492 61.385242 60.591131 59.801191 59.015453 58.233946 57.456703 56.683753 55.915126 55.150853 54.390963 53.635487 52.884452 52.137889 51.395827 50.658293 49.925317 49.196927 48.473151 47.754017 47.039552 46.329783 45.624738 44.924443 44.228925 43.538209 42.852322 42.171290 41.495138 40.823890 40.157572 39.496208 38.839823 38.188440 37.542082 36.900774 36.264537 35.633395 35.007370 34.386484 33.770758 33.160214 32.554872 31.954754 31.359879 30.770268 30.185940 29.606914 29.033209 28.464844 27.901836 27.344204 26.791964 26.245135 25.703731 25.167771 24.637269 24.112241 23.592702 23.078667 22.570149 22.067164 21.569725 21.077844 20.591535 20.110809 19.635679 19.166156 18.702251 18.243975 17.791338 17.344351 16.903022 16.467360 16.037375 15.613074 15.194465 14.781556 14.374353 13.972863 13.577093 13.187047 12.802731 12.424151 12.051310 11.684212 11.322861 10.967261 10.617413 10.273321 9.934986 9.602409 9.275592 8.954535 8.639239 8.329703 8.025927 7.727910 7.435650 7.149145 6.868393 6.593391 6.324137 6.060627 5.802856 5.550821 5.304517 5.063938 4.829080 4.599935 4.376499 4.158763 3.946722 3.740367 3.539691 3.344685 3.155340 2.971648 2.793599 2.621184 2.454391 2.293211 2.137633 1.987645 1.843236 1.704394 1.571105 1.443359 1.321141 1.204438 1.093236 0.987521 0.887280 0.792496 0.703155 0.619242 0.540740 0.467634 0.399907 0.337543 0.280524 0.228834 0.182454 0.141366 0.105554 0.074997 0.049677 0.029576 0.014673 0.004950 0.000386 0.000000 0.000000 0.000000 0.000000 0.000000 0.000000 0.000000 0.000000 0.000000 0.000000 0.000000 0.000000 0.000000 0.000000 0.000000 0.000000 0.000000 0.000000 0.000000 0.000000 0.000000 0.000000 0.000000 0.000000 0.000000 0.000000 0.000000 0.000000 0.000000 0.000000 0.000000 0.000000 0.000000 0.000000 0.000000 0.000000 0.000000 0.000000 0.000000 0.000000 0.000000 0.000000 0.000000 0.000000 0.000000 0.000000 0.000000 0.000000 0.000000 0.000000 0.000000 0.000000 0.000000 0.000000 0.000000 0.000000 0.000000 0.000000 0.000000 0.000000 0.000000 0.000000 0.000000 0.000000 0.000000 0.000000 0.000000 0.000000 0.000000 0.000000 0.000000 0.000000 0.000000 0.000000 0.000000 0.000000 0.000000 0.000000 0.000000 0.000000 0.000000 0.000000 0.000000 0.000000 0.000000 0.000000 0.000000 0.000000 0.000000 0.000000 0.000000 0.000000 0.000000 0.000000 0.000000 0.000000 0.000000 0.000000 0.000000 0.000000 0.000000 0.000000 0.000000 0.000000 0.000000 0.000000 0.000000 0.000000 0.000000 0.000000 0.000000 0.000000 0.000000 0.000000 0.000000 0.000000 0.000000 0.000000 0.000000 0.000000 0.000000 0.000000 0.000000 0.000000 0.000000 0.000000 0.000000 0.000000 0.000000 0.000000 0.000000 0.000000 0.000000 0.000000 0.000000 0.000000 0.000000 0.000000 0.000000 0.000000 0.000000 0.000000 0.000000 0.000000 0.000000 0.000000 0.000000
66.434103 65.612187 64.794269 63.980380 63.170554 62.364822 61.563216 60.765768 59.972509 59.183470 58.398682 57.618177 56.841985 56.070137 55.302662 54.539592 53.780956 53.026783 52.277103 51.531946 50.791340 50.055314 49.323898 48.597118 47.875003 47.157582 46.444881 45.736927 45.033749 44.335372 43.641823 42.953129 42.269315 41.590406 40.916429 40.247408 39.583368 38.924334 38.270329 37.621377 36.977502 36.338728 35.705076 35.076570 34.453231 33.835082 33.222144 32.614438 32.011985 31.414806 30.822921 30.236349 29.655109 29.079222 28.508705 27.943577 27.383856 26.829559 26.280704 25.737307 25.199385 24.666954 24.140030 23.618627 23.102760 22.592445 22.087695 21.588523 21.094944 20.606969 20.124612 19.647884 19.176797 18.711362 18.251590 17.797491 17.349076 16.906354 16.469333 16.038024 15.612433 15.192569 14.778440 14.370052 13.967411 13.570525 13.179399 12.794037 12.414446 12.040629 11.672591 11.310335 10.953864 10.603181 10.258288 9.919188 9.585881 9.258369 8.936653 8.620732 8.310607 8.006276 7.707739 7.414994 7.128039 6.846873 6.571491 6.301891 6.038070 5.780023 5.527747 5.281235 5.040483 4.805486 4.576237 4.352730 4.134958 3.922914 3.716590 3.515979 3.321071 3.131858 2.948331 2.770480 2.598295 2.431766 2.270883 2.115633 1.966007 1.821991 1.683574 1.550743 1.423485 1.301788 1.185637 1.075018 0.969918 0.870321 0.776213 0.687578 0.604400 0.526665 0.454354 0.387453 0.325944 0.269809 0.219031 0.173593 0.133476 0.098661 0.069131 0.044866 0.025846 0.012053 0.003465 0.000064 0.000000 0.000000 0.000000 0.000000 0.000000 0.000000 0.000000 0.000000 0.000000 0.000000 0.000000 0.000000 0.000000 0.000000 0.000000 0.000000 0.000000 0.000000 0.000000 0.000000 0.000000 0.000000 0.000000 0.000000 0.000000 0.000000 0.000000 0.000000 0.000000 0.000000 0.000000 0.000000 0.000000 0.000000 0.000000 0.000000 0.000000 0.000000 0.000000 0.000000 0.000000 0.000000 0.000000 0.000000 0.000000 0.000000 0.000000 0.000000 0.000000 0.000000 0.000000 0.000000 0.000000 0.000000 0.000000 0.000000 0.000000 0.000000 0.000000 0.000000 0.000000 0.000000 0.000000 0.000000 0.000000 0.000000 0.000000 0.000000 0.000000 0.000000 0.000000 0.000000 0.000000 0.000000 0.000000 0.000000 0.000000 0.000000 0.000000 0.000000 0.000000 0.000000 0.000000 0.000000 0.000000 0.000000 0.000000 0.000000 0.000000 0.000000 0.000000 0.000000 0.000000 0.000000 0.000000 0.000000 0.000000 0.000000 0.000000 0.000000 0.000000 0.000000 0.000000 0.000000 0.000000 0.000000 0.000000 0.000000 0.000000 0.000000 0.000000 0.000000 0.000000 0.000000 0.000000 0.000000 0.000000 0.000000 0.000000 0.000000 0.000000 0.000000 0.000000 0.000000 0.000000 0.000000 0.000000 0.000000 0.000000 0.000000 0.000000 0.000000 0.000000 0.000000 0.000000 0.000000 0.000000 0.000000 0.000000 0.000000 0.000000 0.000000 0.000000 0.000000 0.000000 0.000000 0.000000
66.633916 65.808533 64.987164 64.169843 63.356601 62.547470 61.742484 60.941674 60.145071 59.352708 58.564615 57.780824 57.001366 56.226272 55.455572 54.689298 53.927478 53.170144 52.417324 51.669050 50.925349 50.186250 49.451784 48.721978 47.996861 47.276461 46.560806 45.849923 45.143839 44.442583 43.746180 43.054656 42.368039 41.686355 41.009627 40.337883 39.671147 39.009444 38.352797 37.701232 37.054772 36.413441 35.777261 35.146255 34.520446 33.899856 33.284506 32.674419 32.069614 31.470114 30.875937 30.287105 29.703636 29.125550 28.552866 27.985603 27.423778 26.867409 26.316514 25.771109 25.231212 24.696838 24.168004 23.644724 23.127013 22.614887 22.108359 21.607444 21.112154 20.622503 20.138503 19.660167 19.187505 18.720530 18.259253 17.803683 17.353831 16.909707 16.471319 16.038677 15.611789 15.190662 14.775305 14.365725 13.961927 13.563919 13.171706 12.785293 12.404686 12.029888 11.660905 11.297738 10.940393 10.588871 10.243175 9.903307 9.569267 9.241058 8.918680 8.602133 8.291416 7.986530 7.687472 7.394242 7.106838 6.825256 6.549495 6.279550 6.015419 5.757098 5.504581 5.257864 5.016942 4.781809 4.552458 4.328884 4.111079 3.899036 3.692747 3.492205 3.297400 3.108323 2.924966 2.747319 2.575371 2.409112 2.248531 2.093617 1.944359 1.800743 1.662759 1.530394 1.403633 1.282464 1.166874 1.056847 0.952370 0.853427 0.760004 0.672084 0.589653 0.512694 0.441190 0.375125 0.314481 0.259241 0.209388 0.164903 0.125768 0.091964 0.063472 0.040273 0.022348 0.009676 0.002238 0.000000 0.000000 0.000000 0.000000 0.000000 0.000000 0.000000 0.000000 0.000000 0.000000 0.000000 0.000000 0.000000 0.000000 0.000000 0.000000 0.000000 0.000000 0.000000 0.000000 0.000000 0.000000 0.000000 0.000000 0.000000 0.000000 0.000000 0.000000 0.000000 0.000000 0.000000 0.000000 0.000000 0.000000 0.000000 0.000000 0.000000 0.000000 0.000000 0.000000 0.000000 0.000000 0.000000 0.000000 0.000000 0.000000 0.000000 0.000000 0.000000 0.000000 0.000000 0.000000 0.000000 0.000000 0.000000 0.000000 0.000000 0.000000 0.000000 0.000000 0.000000 0.000000 0.000000 0.000000 0.000000 0.000000 0.000000 0.000000 0.000000 0.000000 0.000000 0.000000 0.000000 0.000000 0.000000 0.000000 0.000000 0.000000 0.000000 0.000000 0.000000 0.000000 0.000000 0.000000 0.000000 0.000000 0.000000 0.000000 0.000000 0.000000 0.000000 0.000000 0.000000 0.000000 0.000000 0.000000 0.000000 0.000000 0.000000 0.000000 0.000000 0.000000 0.000000 0.000000 0.000000 0.000000 0.000000 0.000000 0.000000 0.000000 0.000000 0.000000 0.000000 0.000000 0.000000 0.000000 0.000000 0.000000 0.000000 0.000000 0.000000 0.000000 0.000000 0.000000 0.000000 0.000000 0.000000 0.000000 0.000000 0.000000 0.000000 0.000000 0.000000 0.000000 0.000000 0.000000 0.000000 0.000000 0.000000 0.000000 0.000000 0.000000 0.000000 0.000000 0.000000 0.000000 0.000000 0.000000
66.835186 66.006310 65.181466 64.360687 63.544004 62.731450 61.923059 61.118862 60.318891 59.523178 58.731756 57.944655 57.161907 56.383543 55.609595 54.840092 54.075066 53.314546 52.558564 51.807148 51.060329 50.318135 49.580597 48.847742 48.119600 47.396199 46.677567 45.963733 45.254723 44.550565 43.851286 43.156913 42.467472 41.782990 41.103492 40.429004 39.759552 39.095159 38.435852 37.781654 37.132590 36.488682 35.849955 35.216431 34.588133 33.965084 33.347305 32.734818 32.127645 31.525806 30.929321 30.338212 29.752497 29.172197 28.597330 28.027916 27.463972 26.905516 26.352566 25.805140 25.263253 24.726923 24.196165 23.670994 23.151427 22.637478 22.129160 21.626489 21.129477 20.638138 20.152485 19.672529 19.198282 18.729757 18.266964 17.809913 17.358616 16.913080 16.473317 16.039334 15.611140 15.188744 14.772152 14.361372 13.956411 13.557274 13.163968 12.776499 12.394870 12.019086 11.649153 11.285072 10.926849 10.574484 10.227981 9.887341 9.552567 9.223658 8.900616 8.583440 8.272131 7.966688 7.667109 7.373394 7.085539 6.803542 6.527402 6.257114 5.992674 5.734079 5.481324 5.234404 4.993313 4.758047 4.528598 4.304959 4.087125 3.875087 3.668838 3.468369 3.273671 3.084737 2.901555 2.724116 2.552411 2.386428 2.226156 2.071585 1.922702 1.779495 1.641951 1.510058 1.383803 1.263171 1.148150 1.038724 0.934879 0.836600 0.743871 0.656677 0.575002 0.498830 0.428143 0.362925 0.303158 0.248825 0.199907 0.156387 0.118246 0.085464 0.058024 0.035904 0.019086 0.007549 0.001274 0.000000 0.000000 0.000000 0.000000 0.000000 0.000000 0.000000 0.000000 0.000000 0.000000 0.000000 0.000000 0.000000 0.000000 0.000000 0.000000 0.000000 0.000000 0.000000 0.000000 0.000000 0.000000 0.000000 0.000000 0.000000 0.000000 0.000000 0.000000 0.000000 0.000000 0.000000 0.000000 0.000000 0.000000 0.000000 0.000000 0.000000 0.000000 0.000000 0.000000 0.000000 0.000000 0.000000 0.000000 0.000000 0.000000 0.000000 0.000000 0.000000 0.000000 0.000000 0.000000 0.000000 0.000000 0.000000 0.000000 0.000000 0.000000 0.000000 0.000000 0.000000 0.000000 0.000000 0.000000 0.000000 0.000000 0.000000 0.000000 0.000000 0.000000 0.000000 0.000000 0.000000 0.000000 0.000000 0.000000 0.000000 0.000000 0.000000 0.000000 0.000000 0.000000 0.000000 0.000000 0.000000 0.000000 0.000000 0.000000 0.000000 0.000000 0.000000 0.000000 0.000000 0.000000 0.000000 0.000000 0.000000 0.000000 0.000000 0.000000 0.000000 0.000000 0.000000 0.000000 0.000000 0.000000 0.000000 0.000000 0.000000 0.000000 0.000000 0.000000 0.000000 0.000000 0.000000 0.000000 0.000000 0.000000 0.000000 0.000000 0.000000 0.000000 0.000000 0.000000 0.000000 0.000000 0.000000 0.000000 0.000000 0.000000 0.000000 0.000000 0.000000 0.000000 0.000000 0.000000 0.000000 0.000000 0.000000 0.000000 0.000000 0.000000 0.000000 0.000000 0.000000 0.000000 0.000000 0.000000
67.037927 66.205534 65.377190 64.552926 63.732777 62.916775 62.104954 61.297345 60.493981 59.694895 58.900118 58.109682 57.323620 56.541962 55.764741 54.991986 54.223729 53.460001 52.700831 51.946251 51.196290 50.450978 49.710344 48.974418 48.243229 47.516805 46.795174 46.078365 45.366407 44.659326 43.957149 43.259905 42.567619 41.880319 41.198029 40.520777 39.848588 39.181487 38.519499 37.862649 37.210960 36.564457 35.923164 35.287103 34.656298 34.030771 33.410545 32.795641 32.186081 31.581886 30.983077 30.389674 29.801697 29.219166 28.642101 28.070519 27.504441 26.943883 26.388864 25.839401 25.295511 24.757210 24.224514 23.697441 23.176003 22.660218 22.150098 21.645659 21.146913 20.653875 20.166557 19.684971 19.209129 18.739043 18.274724 17.816183 17.363430 16.916475 16.475327 16.039995 15.610488 15.186814 14.768980 14.356993 13.950862 13.550590 13.156186 12.767653 12.384997 12.008223 11.637335 11.272336 10.913230 10.560019 10.212705 9.871291 9.535779 9.206168 8.882460 8.564654 8.252751 7.946750 7.646649 7.352447 7.064142 6.781731 6.505212 6.234581 5.969834 5.710967 5.457975 5.210854 4.969598 4.734200 4.504656 4.280957 4.063097 3.851068 3.644862 3.444471 3.249886 3.061098 2.878097 2.700874 2.529417 2.363716 2.203760 2.049538 1.901037 1.758245 1.621150 1.489738 1.363996 1.243911 1.129467 1.020651 0.917447 0.819841 0.727817 0.641359 0.560451 0.485075 0.415216 0.350856 0.291977 0.238562 0.190592 0.148049 0.110913 0.079167 0.052790 0.031762 0.016064 0.005676 0.000576 0.000000 0.000000 0.000000 0.000000 0.000000 0.000000 0.000000 0.000000 0.000000 0.000000 0.000000 0.000000 0.000000 0.000000 0.000000 0.000000 0.000000 0.000000 0.000000 0.000000 0.000000 0.000000 0.000000 0.000000 0.000000 0.000000 0.000000 0.000000 0.000000 0.000000 0.000000 0.000000 0.000000 0.000000 0.000000 0.000000 0.000000 0.000000 0.000000 0.000000 0.000000 0.000000 0.000000 0.000000 0.000000 0.000000 0.000000 0.000000 0.000000 0.000000 0.000000 0.000000 0.000000 0.000000 0.000000 0.000000 0.000000 0.000000 0.000000 0.000000 0.000000 0.000000 0.000000 0.000000 0.000000 0.000000 0.000000 0.000000 0.000000 0.000000 0.000000 0.000000 0.000000 0.000000 0.000000 0.000000 0.000000 0.000000 0.000000 0.000000 0.000000 0.000000 0.000000 0.000000 0.000000 0.000000 0.000000 0.000000 0.000000 0.000000 0.000000 0.000000 0.000000 0.000000 0.000000 0.000000 0.000000 0.000000 0.000000 0.000000 0.000000 0.000000 0.000000 0.000000 0.000000 0.000000 0.000000 0.000000 0.000000 0.000000 0.000000 0.000000 0.000000 0.000000 0.000000 0.000000 0.000000 0.000000 0.000000 0.000000 0.000000 0.000000 0.000000 0.000000 0.000000 0.000000 0.000000 0.000000 0.000000 0.000000 0.000000 0.000000 0.000000 0.000000 0.000000 0.000000 0.000000 0.000000 0.000000 0.000000 0.000000 0.000000 0.000000 0.000000 0.000000 0.000000 0.000000 0.000000
67.242155 66.406220 65.574349 64.746576 63.922936 63.103460 62.288183 61.477137 60.670355 59.867870 59.069714 58.275919 57.486518 56.701542 55.921022 55.144991 54.373480 53.606518 52.844138 52.086370 51.333244 50.584790 49.841038 49.102017 48.367757 47.638287 46.913635 46.193830 45.478900 44.768874 44.063778 43.363641 42.668489 41.978349 41.293247 40.613210 39.938264 39.268434 38.603744 37.944221 37.289889 36.640771 35.996893 35.358276 34.724945 34.096922 33.474230 32.856891 32.244927 31.638359 31.037207 30.441494 29.851238 29.266460 28.687180 28.113416 27.545188 26.982513 26.425409 25.873895 25.327987 24.787701 24.253055 23.724064 23.200744 22.683109 22.171175 21.664955 21.164464 20.669715 20.180720 19.697493 19.220045 18.748388 18.282534 17.822493 17.368275 16.919891 16.477350 16.040660 15.609832 15.184872 14.765788 14.352589 13.945279 13.543867 13.148357 12.758756 12.375068 11.997299 11.625451 11.259529 10.899536 10.545474 10.197347 9.855156 9.518902 9.188587 8.864211 8.545774 8.233275 7.926715 7.626091 7.331403 7.042647 6.759822 6.482925 6.211951 5.946898 5.687761 5.434534 5.187214 4.945794 4.710269 4.480632 4.256876 4.038994 3.826978 3.620820 3.420512 3.226044 3.037408 2.854594 2.677591 2.506389 2.340977 2.181344 2.027477 1.879366 1.736997 1.600358 1.469435 1.344215 1.224684 1.110827 1.002630 0.900078 0.803154 0.711845 0.626132 0.546001 0.471433 0.402413 0.338922 0.280942 0.228457 0.181446 0.139892 0.103775 0.073076 0.047775 0.027852 0.013288 0.004060 0.000150 0.000000 0.000000 0.000000 0.000000 0.000000 0.000000 0.000000 0.000000 0.000000 0.000000 0.000000 0.000000 0.000000 0.000000 0.000000 0.000000 0.000000 0.000000 0.000000 0.000000 0.000000 0.000000 0.000000 0.000000 0.000000 0.000000 0.000000 0.000000 0.000000 0.000000 0.000000 0.000000 0.000000 0.000000 0.000000 0.000000 0.000000 0.000000 0.000000 0.000000 0.000000 0.000000 0.000000 0.000000 0.000000 0.000000 0.000000 0.000000 0.000000 0.000000 0.000000 0.000000 0.000000 0.000000 0.000000 0.000000 0.000000 0.000000 0.000000 0.000000 0.000000 0.000000 0.000000 0.000000 0.000000 0.000000 0.000000 0.000000 0.000000 0.000000 0.000000 0.000000 0.000000 0.000000 0.000000 0.000000 0.000000 0.000000 0.000000 0.000000 0.000000 0.000000 0.000000 0.000000 0.000000 0.000000 0.000000 0.000000 0.000000 0.000000 0.000000 0.000000 0.000000 0.000000 0.000000 0.000000 0.000000 0.000000 0.000000 0.000000 0.000000 0.000000 0.000000 0.000000 0.000000 0.000000 0.000000 0.000000 0.000000 0.000000 0.000000 0.000000 0.000000 0.000000 0.000000 0.000000 0.000000 0.000000 0.000000 0.000000 0.000000 0.000000 0.000000 0.000000 0.000000 0.000000 0.000000 0.000000 0.000000 0.000000 0.000000 0.000000 0.000000 0.000000 0.000000 0.000000 0.000000 0.000000 0.000000 0.000000 0.000000 0.000000 0.000000 0.000000 0.000000 0.000000 0.000000 0.000000
67.447886 66.608382 65.772958 64.941651 64.114493 63.291518 62.472760 61.658252 60.848027 60.042117 59.240557 58.443378 57.650612 56.862293 56.078451 55.299120 54.524329 53.754110 52.988496 52.227516 51.471200 50.719581 49.972686 49.230547 48.493194 47.760654 47.032958 46.310135 45.592212 44.879218 44.171181 43.468129 42.770089 42.077088 41.389152 40.706309 40.028585 39.356005 38.688594 38.026378 37.369382 36.717630 36.071147 35.429955 34.794079 34.163542 33.538366 32.918574 32.304187 31.695228 31.091717 30.493676 29.901125 29.314083 28.732572 28.156610 27.586215 27.021408 26.462205 25.908624 25.360683 24.818399 24.281788 23.750866 23.225650 22.706153 22.192391 21.684379 21.182130 20.685658 20.194976 19.710096 19.231032 18.757794 18.290394 17.828842 17.373151 16.923328 16.479385 16.041330 15.609171 15.182918 14.762578 14.348157 13.939664 13.537104 13.140483 12.749808 12.365082 11.986311 11.613499 11.246650 10.885766 10.530850 10.181906 9.838934 9.501937 9.170915 8.845868 8.526798 8.213703 7.906582 7.605435 7.310260 7.021054 6.737815 6.460539 6.189225 5.923866 5.664460 5.411001 5.163484 4.921903 4.686253 4.456526 4.232716 4.014816 3.802817 3.596712 3.396491 3.202146 3.013667 2.831045 2.654268 2.483327 2.318211 2.158907 2.005404 1.857690 1.715752 1.579576 1.449151 1.324461 1.205493 1.092232 0.984663 0.882771 0.786540 0.695955 0.610999 0.531655 0.457906 0.389735 0.327125 0.270056 0.218512 0.172473 0.131920 0.096833 0.067194 0.042983 0.024178 0.010760 0.002708 0.000000 0.000000 0.000000 0.000000 0.000000 0.000000 0.000000 0.000000 0.000000 0.000000 0.000000 0.000000 0.000000 0.000000 0.000000 0.000000 0.000000 0.000000 0.000000 0.000000 0.000000 0.000000 0.000000 0.000000 0.000000 0.000000 0.000000 0.000000 0.000000 0.000000 0.000000 0.000000 0.000000 0.000000 0.000000 0.000000 0.000000 0.000000 0.000000 0.000000 0.000000 0.000000 0.000000 0.000000 0.000000 0.000000 0.000000 0.000000 0.000000 0.000000 0.000000 0.000000 0.000000 0.000000 0.000000 0.000000 0.000000 0.000000 0.000000 0.000000 0.000000 0.000000 0.000000 0.000000 0.000000 0.000000 0.000000 0.000000 0.000000 0.000000 0.000000 0.000000 0.000000 0.000000 0.000000 0.000000 0.000000 0.000000 0.000000 0.000000 0.000000 0.000000 0.000000 0.000000 0.000000 0.000000 0.000000 0.000000 0.000000 0.000000 0.000000 0.000000 0.000000 0.000000 0.000000 0.000000 0.000000 0.000000 0.000000 0.000000 0.000000 0.000000 0.000000 0.000000 0.000000 0.000000 0.000000 0.000000 0.000000 0.000000 0.000000 0.000000 0.000000 0.000000 0.000000 0.000000 0.000000 0.000000 0.000000 0.000000 0.000000 0.000000 0.000000 0.000000 0.000000 0.000000 0.000000 0.000000 0.000000 0.000000 0.000000 0.000000 0.000000 0.000000 0.000000 0.000000 0.000000 0.000000 0.000000 0.000000 0.000000 0.000000 0.000000 0.000000 0.000000 0.000000 0.000000 0.000000 0.000000
67.655136 66.812036 65.973034 65.138166 64.307465 63.480965 62.658700 61.840703 61.027009 60.217650 59.412660 58.612071 57.815917 57.024229 56.237040 55.454383 54.676288 53.902788 53.133914 52.369698 51.610170 50.855360 50.105300 49.360020 48.619549 47.883917 47.153154 46.427289 45.706350 44.990366 44.279366 43.573376 42.872426 42.176543 41.485752 40.800082 40.119558 39.444207 38.774055 38.109126 37.449446 36.795040 36.145932 35.502146 34.863706 34.230635 33.602956 32.980692 32.363865 31.752497 31.146610 30.546224 29.951360 29.362038 28.778279 28.200102 27.627526 27.060570 26.499253 25.943591 25.393603 24.849306 24.310716 23.777850 23.250723 22.729351 22.213749 21.703932 21.199913 20.701706 20.209325 19.722782 19.242089 18.767259 18.298303 17.835232 17.378057 16.926787 16.481433 16.042003 15.608507 15.180952 14.759347 14.343699 13.934015 13.530300 13.132563 12.740807 12.355038 11.975261 11.601480 11.233698 10.871920 10.516147 10.166381 9.822626 9.484882 9.153151 8.827432 8.507726 8.194033 7.886351 7.584680 7.289017 6.999360 6.715708 6.438055 6.166400 5.900738 5.641064 5.387375 5.139663 4.897924 4.662152 4.432339 4.208479 3.990564 3.778586 3.572538 3.372409 3.178192 2.989876 2.807451 2.630907 2.460233 2.295419 2.136451 1.983318 1.836009 1.694509 1.558806 1.428886 1.304735 1.186339 1.073683 0.966752 0.865530 0.770002 0.680151 0.595962 0.517416 0.444497 0.377187 0.315468 0.259323 0.208731 0.163676 0.124136 0.090093 0.061527 0.038418 0.020744 0.008486 0.001623 0.000000 0.000000 0.000000 0.000000 0.000000 0.000000 0.000000 0.000000 0.000000 0.000000 0.000000 0.000000 0.000000 0.000000 0.000000 0.000000 0.000000 0.000000 0.000000 0.000000 0.000000 0.000000 0.000000 0.000000 0.000000 0.000000 0.000000 0.000000 0.000000 0.000000 0.000000 0.000000 0.000000 0.000000 0.000000 0.000000 0.000000 0.000000 0.000000 0.000000 0.000000 0.000000 0.000000 0.000000 0.000000 0.000000 0.000000 0.000000 0.000000 0.000000 0.000000 0.000000 0.000000 0.000000 0.000000 0.000000 0.000000 0.000000 0.000000 0.000000 0.000000 0.000000 0.000000 0.000000 0.000000 0.000000 0.000000 0.000000 0.000000 0.000000 0.000000 0.000000 0.000000 0.000000 0.000000 0.000000 0.000000 0.000000 0.000000 0.000000 0.000000 0.000000 0.000000 0.000000 0.000000 0.000000 0.000000 0.000000 0.000000 0.000000 0.000000 0.000000 0.000000 0.000000 0.000000 0.000000 0.000000 0.000000 0.000000 0.000000 0.000000 0.000000 0.000000 0.000000 0.000000 0.000000 0.000000 0.000000 0.000000 0.000000 0.000000 0.000000 0.000000 0.000000 0.000000 0.000000 0.000000 0.000000 0.000000 0.000000 0.000000 0.000000 0.000000 0.000000 0.000000 0.000000 0.000000 0.000000 0.000000 0.000000 0.000000 0.000000 0.000000 0.000000 0.000000 0.000000 0.000000 0.000000 0.000000 0.000000 0.000000 0.000000 0.000000 0.000000 0.000000 0.000000 0.000000 0.000000 0.000000
