nCols  306
nRows  32
xllcenter  2720
yllcenter -3220
cellsize  5
nodata_value -9999.00
2.153117 2.089300 2.027029 1.966279 1.907023 1.849235 1.792890 1.737963 1.684426 1.632257 1.581428 1.531915 1.483694 1.436739 1.391026 1.346532 1.303231 1.261099 1.220115 1.180252 1.141490 1.103804 1.067172 1.031571 0.996980 0.963375 0.930736 0.899041 0.868268 0.838398 0.809408 0.781279 0.753990 0.727523 0.701856 0.676971 0.652849 0.629471 0.606819 0.584875 0.563620 0.543038 0.523111 0.503822 0.485154 0.467092 0.449618 0.432718 0.416375 0.400576 0.385303 0.370544 0.356284 0.342509 0.329204 0.316357 0.303954 0.291983 0.280430 0.269284 0.258533 0.248164 0.238165 0.228527 0.219237 0.210285 0.201661 0.193354 0.185354 0.177651 0.170236 0.163100 0.156234 0.149628 0.143274 0.137164 0.131290 0.125644 0.120217 0.115003 0.109995 0.105185 0.100566 0.096131 0.091875 0.087791 0.083872 0.080113 0.076508 0.073052 0.069738 0.066563 0.063520 0.060604 0.057812 0.055138 0.052577 0.050126 0.047781 0.045536 0.043389 0.041336 0.039372 0.037495 0.035700 0.033985 0.032346 0.030781 0.029286 0.027859 0.026496 0.025195 0.023954 0.022769 0.021639 0.020562 0.019534 0.018555 0.017621 0.016732 0.015884 0.015077 0.014308 0.013576 0.012879 0.012215 0.011584 0.010983 0.010412 0.009869 0.009352 0.008861 0.008394 0.007950 0.007529 0.007128 0.006748 0.006387 0.006044 0.005719 0.005410 0.005117 0.004839 0.004575 0.004325 0.004088 0.003864 0.003651 0.003449 0.003258 0.003077 0.002905 0.002743 0.002589 0.002443 0.002306 0.002175 0.002052 0.001936 0.001825 0.001721 0.001623 0.001529 0.001441 0.001358 0.001280 0.001205 0.001135 0.001069 0.001007 0.000948 0.000892 0.000840 0.000790 0.000744 0.000699 0.000658 0.000619 0.000582 0.000547 0.000514 0.000483 0.000454 0.000427 0.000401 0.000377 0.000354 0.000332 0.000312 0.000293 0.000275 0.000258 0.000242 0.000228 0.000213 0.000200 0.000188 0.000176 0.000165 0.000155 0.000145 0.000136 0.000128 0.000120 0.000112 0.000105 0.000099 0.000092 0.000086 0.000081 0.000076 0.000071 0.000067 0.000062 0.000058 0.000055 0.000051 0.000048 0.000045 0.000042 0.000039 0.000037 0.000034 0.000032 0.000030 0.000028 0.000026 0.000025 0.000023 0.000021 0.000020 0.000019 0.000017 0.000016 0.000015 0.000014 0.000013 0.000012 0.000012 0.000011 0.000010 0.000009 0.000009 0.000008 0.000008 0.000007 0.000007 0.000006 0.000006 0.000005 0.000005 0.000005 0.000004 0.000004 0.000004 0.000004 0.000003 0.000003 0.000003 0.000003 0.000003 0.000002 0.000002 0.000002 0.000002 0.000002 0.000002 0.000002 0.000001 0.000001 0.000001 0.000001 0.000001 0.000001 0.000001 0.000001 0.000001 0.000001 0.000001 0.000001 0.000001 0.000001 0.000001 0.000001 0.000000 0.000000 0.000000 0.000000 0.000000 0.000000 0.000000 0.000000 0.000000 0.000000 0.000000 0.000000 0.000000 0.000000 0.000000 0.000000 0.000000 0.000000 0.000000 0.000000 0.000000 0.000000
2.179353 2.114739 2.051689 1.990179 1.930180 1.871668 1.814616 1.758999 1.704790 1.651965 1.600497 1.550362 1.501534 1.453988 1.407700 1.362645 1.318799 1.276138 1.234637 1.194273 1.155023 1.116863 1.079771 1.043723 1.008697 0.974671 0.941622 0.909530 0.878372 0.848127 0.818775 0.790295 0.762666 0.735869 0.709883 0.684689 0.660267 0.636600 0.613668 0.591453 0.569936 0.549101 0.528929 0.509403 0.490508 0.472225 0.454539 0.437433 0.420893 0.404902 0.389446 0.374509 0.360078 0.346138 0.332675 0.319675 0.307125 0.295013 0.283325 0.272048 0.261171 0.250681 0.240567 0.230817 0.221420 0.212366 0.203643 0.195242 0.187151 0.179362 0.171864 0.164648 0.157705 0.151027 0.144603 0.138427 0.132489 0.126781 0.121296 0.116027 0.110965 0.106104 0.101437 0.096956 0.092656 0.088529 0.084571 0.080774 0.077133 0.073641 0.070295 0.067088 0.064015 0.061072 0.058252 0.055552 0.052968 0.050494 0.048127 0.045862 0.043695 0.041623 0.039641 0.037747 0.035937 0.034207 0.032554 0.030976 0.029468 0.028029 0.026655 0.025343 0.024092 0.022898 0.021760 0.020674 0.019639 0.018652 0.017711 0.016815 0.015961 0.015148 0.014374 0.013637 0.012935 0.012267 0.011632 0.011027 0.010452 0.009906 0.009386 0.008892 0.008422 0.007976 0.007552 0.007150 0.006767 0.006404 0.006060 0.005733 0.005422 0.005128 0.004849 0.004584 0.004333 0.004095 0.003869 0.003655 0.003453 0.003261 0.003079 0.002907 0.002744 0.002590 0.002444 0.002306 0.002175 0.002052 0.001935 0.001825 0.001720 0.001621 0.001528 0.001440 0.001357 0.001278 0.001204 0.001133 0.001067 0.001005 0.000946 0.000890 0.000838 0.000788 0.000741 0.000697 0.000656 0.000617 0.000580 0.000545 0.000512 0.000481 0.000452 0.000425 0.000399 0.000375 0.000352 0.000331 0.000311 0.000292 0.000274 0.000257 0.000241 0.000226 0.000212 0.000199 0.000187 0.000175 0.000164 0.000154 0.000144 0.000135 0.000127 0.000119 0.000111 0.000104 0.000098 0.000092 0.000086 0.000080 0.000075 0.000070 0.000066 0.000062 0.000058 0.000054 0.000051 0.000047 0.000044 0.000041 0.000039 0.000036 0.000034 0.000032 0.000030 0.000028 0.000026 0.000024 0.000023 0.000021 0.000020 0.000018 0.000017 0.000016 0.000015 0.000014 0.000013 0.000012 0.000011 0.000011 0.000010 0.000009 0.000009 0.000008 0.000008 0.000007 0.000007 0.000006 0.000006 0.000005 0.000005 0.000005 0.000004 0.000004 0.000004 0.000004 0.000003 0.000003 0.000003 0.000003 0.000003 0.000002 0.000002 0.000002 0.000002 0.000002 0.000002 0.000002 0.000001 0.000001 0.000001 0.000001 0.000001 0.000001 0.000001 0.000001 0.000001 0.000001 0.000001 0.000001 0.000001 0.000001 0.000001 0.000000 0.000000 0.000000 0.000000 0.000000 0.000000 0.000000 0.000000 0.000000 0.000000 0.000000 0.000000 0.000000 0.000000 0.000000 0.000000 0.000000 0.000000 0.000000 0.000000 0.000000 0.000000 0.000000
2.206023 2.140563 2.076723 2.014441 1.953689 1.894442 1.836672 1.780355 1.725464 1.671973 1.619857 1.569089 1.519645 1.471500 1.424628 1.379004 1.334605 1.291405 1.249381 1.208508 1.168762 1.130121 1.092561 1.056059 1.020592 0.986137 0.952673 0.920178 0.888628 0.858004 0.828284 0.799448 0.771473 0.744341 0.718031 0.692523 0.667798 0.643836 0.620619 0.598129 0.576347 0.555254 0.534834 0.515068 0.495941 0.477434 0.459532 0.442218 0.425476 0.409292 0.393649 0.378532 0.363927 0.349820 0.336196 0.323041 0.310343 0.298087 0.286260 0.274851 0.263846 0.253234 0.243002 0.233139 0.223634 0.214476 0.205653 0.197156 0.188973 0.181096 0.173514 0.166217 0.159197 0.152445 0.145950 0.139706 0.133703 0.127934 0.122390 0.117064 0.111948 0.107036 0.102319 0.097792 0.093447 0.089278 0.085278 0.081443 0.077765 0.074238 0.070859 0.067620 0.064517 0.061545 0.058698 0.055972 0.053363 0.050866 0.048477 0.046191 0.044004 0.041913 0.039914 0.038003 0.036177 0.034432 0.032765 0.031173 0.029652 0.028201 0.026816 0.025494 0.024232 0.023029 0.021881 0.020787 0.019744 0.018750 0.017802 0.016899 0.016040 0.015221 0.014441 0.013699 0.012992 0.012320 0.011680 0.011072 0.010493 0.009943 0.009420 0.008923 0.008451 0.008002 0.007576 0.007171 0.006787 0.006422 0.006075 0.005747 0.005435 0.005139 0.004859 0.004593 0.004340 0.004101 0.003875 0.003660 0.003457 0.003264 0.003082 0.002909 0.002746 0.002591 0.002445 0.002306 0.002175 0.002052 0.001934 0.001824 0.001719 0.001620 0.001527 0.001438 0.001355 0.001276 0.001202 0.001132 0.001065 0.001003 0.000944 0.000888 0.000836 0.000786 0.000739 0.000695 0.000654 0.000615 0.000578 0.000543 0.000510 0.000480 0.000451 0.000423 0.000398 0.000373 0.000351 0.000329 0.000309 0.000290 0.000272 0.000255 0.000240 0.000225 0.000211 0.000198 0.000185 0.000174 0.000163 0.000153 0.000143 0.000134 0.000126 0.000118 0.000110 0.000103 0.000097 0.000091 0.000085 0.000080 0.000074 0.000070 0.000065 0.000061 0.000057 0.000053 0.000050 0.000047 0.000044 0.000041 0.000038 0.000036 0.000033 0.000031 0.000029 0.000027 0.000026 0.000024 0.000022 0.000021 0.000020 0.000018 0.000017 0.000016 0.000015 0.000014 0.000013 0.000012 0.000011 0.000011 0.000010 0.000009 0.000009 0.000008 0.000007 0.000007 0.000007 0.000006 0.000006 0.000005 0.000005 0.000005 0.000004 0.000004 0.000004 0.000003 0.000003 0.000003 0.000003 0.000003 0.000002 0.000002 0.000002 0.000002 0.000002 0.000002 0.000002 0.000002 0.000001 0.000001 0.000001 0.000001 0.000001 0.000001 0.000001 0.000001 0.000001 0.000001 0.000001 0.000001 0.000001 0.000001 0.000001 0.000000 0.000000 0.000000 0.000000 0.000000 0.000000 0.000000 0.000000 0.000000 0.000000 0.000000 0.000000 0.000000 0.000000 0.000000 0.000000 0.000000 0.000000 0.000000 0.000000 0.000000 0.000000 0.000000
2.233939 2.166778 2.102137 2.039071 1.977555 1.917562 1.859064 1.802037 1.746453 1.692286 1.639511 1.588102 1.538033 1.489279 1.441814 1.395613 1.350652 1.306905 1.264349 1.222959 1.182711 1.143582 1.105547 1.068583 1.032668 0.997779 0.963893 0.930987 0.899041 0.868032 0.837938 0.808739 0.780413 0.752941 0.726302 0.700475 0.675441 0.651181 0.627676 0.604906 0.582853 0.561500 0.540827 0.520818 0.501455 0.482721 0.464599 0.447074 0.430128 0.413747 0.397914 0.382614 0.367833 0.353556 0.339768 0.326456 0.313606 0.301205 0.289238 0.277694 0.266560 0.255823 0.245472 0.235495 0.225879 0.216615 0.207691 0.199097 0.190821 0.182855 0.175187 0.167808 0.160710 0.153882 0.147316 0.141003 0.134934 0.129102 0.123498 0.118115 0.112944 0.107980 0.103213 0.098638 0.094248 0.090036 0.085995 0.082120 0.078405 0.074843 0.071429 0.068158 0.065025 0.062023 0.059149 0.056397 0.053763 0.051243 0.048831 0.046524 0.044317 0.042207 0.040190 0.038262 0.036419 0.034659 0.032978 0.031372 0.029839 0.028375 0.026978 0.025645 0.024374 0.023161 0.022004 0.020901 0.019850 0.018848 0.017894 0.016984 0.016118 0.015294 0.014508 0.013761 0.013050 0.012373 0.011729 0.011117 0.010535 0.009981 0.009455 0.008955 0.008480 0.008028 0.007600 0.007193 0.006806 0.006439 0.006091 0.005761 0.005448 0.005150 0.004869 0.004601 0.004348 0.004108 0.003881 0.003665 0.003461 0.003268 0.003085 0.002912 0.002748 0.002592 0.002446 0.002307 0.002175 0.002051 0.001934 0.001823 0.001718 0.001619 0.001525 0.001437 0.001353 0.001274 0.001200 0.001130 0.001063 0.001001 0.000942 0.000886 0.000833 0.000784 0.000737 0.000693 0.000652 0.000613 0.000576 0.000541 0.000508 0.000478 0.000449 0.000421 0.000396 0.000372 0.000349 0.000327 0.000307 0.000288 0.000271 0.000254 0.000238 0.000223 0.000209 0.000196 0.000184 0.000173 0.000162 0.000152 0.000142 0.000133 0.000125 0.000117 0.000110 0.000103 0.000096 0.000090 0.000084 0.000079 0.000074 0.000069 0.000065 0.000060 0.000057 0.000053 0.000050 0.000046 0.000043 0.000041 0.000038 0.000035 0.000033 0.000031 0.000029 0.000027 0.000025 0.000024 0.000022 0.000021 0.000019 0.000018 0.000017 0.000016 0.000015 0.000014 0.000013 0.000012 0.000011 0.000010 0.000010 0.000009 0.000008 0.000008 0.000007 0.000007 0.000006 0.000006 0.000006 0.000005 0.000005 0.000005 0.000004 0.000004 0.000004 0.000003 0.000003 0.000003 0.000003 0.000003 0.000002 0.000002 0.000002 0.000002 0.000002 0.000002 0.000002 0.000001 0.000001 0.000001 0.000001 0.000001 0.000001 0.000001 0.000001 0.000001 0.000001 0.000001 0.000001 0.000001 0.000001 0.000001 0.000001 0.000000 0.000000 0.000000 0.000000 0.000000 0.000000 0.000000 0.000000 0.000000 0.000000 0.000000 0.000000 0.000000 0.000000 0.000000 0.000000 0.000000 0.000000 0.000000 0.000000 0.000000 0.000000 0.000000
2.263444 2.193393 2.127938 2.064077 2.001785 1.941034 1.881798 1.824049 1.767762 1.712910 1.659467 1.607406 1.556702 1.507330 1.459263 1.412476 1.366945 1.322643 1.279547 1.237632 1.196874 1.157248 1.118731 1.081299 1.044929 1.009598 0.975284 0.941962 0.909612 0.878212 0.847738 0.818172 0.789490 0.761672 0.734698 0.708548 0.683201 0.658637 0.634838 0.611785 0.589458 0.567839 0.546910 0.526653 0.507051 0.488086 0.469742 0.452002 0.434849 0.418267 0.402242 0.386756 0.371796 0.357347 0.343393 0.329922 0.316918 0.304368 0.292259 0.280579 0.269313 0.258450 0.247978 0.237884 0.228157 0.218785 0.209758 0.201065 0.192695 0.184638 0.176883 0.169421 0.162243 0.155339 0.148700 0.142317 0.136182 0.130286 0.124621 0.119180 0.113954 0.108936 0.104119 0.099496 0.095059 0.090803 0.086721 0.082806 0.079053 0.075455 0.072007 0.068704 0.065539 0.062508 0.059606 0.056828 0.054169 0.051624 0.049189 0.046860 0.044633 0.042504 0.040469 0.038523 0.036665 0.034889 0.033193 0.031573 0.030027 0.028551 0.027143 0.025799 0.024517 0.023294 0.022128 0.021017 0.019958 0.018948 0.017987 0.017070 0.016198 0.015367 0.014577 0.013824 0.013108 0.012426 0.011778 0.011162 0.010576 0.010019 0.009490 0.008987 0.008509 0.008055 0.007624 0.007214 0.006826 0.006457 0.006107 0.005775 0.005460 0.005162 0.004879 0.004610 0.004356 0.004115 0.003886 0.003670 0.003465 0.003271 0.003088 0.002914 0.002749 0.002594 0.002446 0.002307 0.002175 0.002051 0.001933 0.001822 0.001717 0.001618 0.001524 0.001435 0.001352 0.001273 0.001198 0.001128 0.001061 0.000999 0.000940 0.000884 0.000831 0.000782 0.000735 0.000691 0.000650 0.000610 0.000574 0.000539 0.000506 0.000476 0.000447 0.000420 0.000394 0.000370 0.000347 0.000326 0.000306 0.000287 0.000269 0.000252 0.000237 0.000222 0.000208 0.000195 0.000183 0.000171 0.000161 0.000151 0.000141 0.000132 0.000124 0.000116 0.000109 0.000102 0.000095 0.000089 0.000083 0.000078 0.000073 0.000068 0.000064 0.000060 0.000056 0.000052 0.000049 0.000046 0.000043 0.000040 0.000037 0.000035 0.000033 0.000031 0.000029 0.000027 0.000025 0.000023 0.000022 0.000020 0.000019 0.000018 0.000017 0.000015 0.000014 0.000013 0.000013 0.000012 0.000011 0.000010 0.000010 0.000009 0.000008 0.000008 0.000007 0.000007 0.000006 0.000006 0.000005 0.000005 0.000005 0.000004 0.000004 0.000004 0.000004 0.000003 0.000003 0.000003 0.000003 0.000003 0.000002 0.000002 0.000002 0.000002 0.000002 0.000002 0.000002 0.000001 0.000001 0.000001 0.000001 0.000001 0.000001 0.000001 0.000001 0.000001 0.000001 0.000001 0.000001 0.000001 0.000001 0.000001 0.000000 0.000000 0.000000 0.000000 0.000000 0.000000 0.000000 0.000000 0.000000 0.000000 0.000000 0.000000 0.000000 0.000000 0.000000 0.000000 0.000000 0.000000 0.000000 0.000000 0.000000 0.000000 0.000000 0.000000
2.294562 2.220775 2.154132 2.089465 2.026386 1.964866 1.904879 1.846399 1.789398 1.733850 1.679728 1.627006 1.575658 1.525658 1.476980 1.429598 1.383487 1.338623 1.294978 1.252530 1.211254 1.171124 1.132117 1.094210 1.057378 1.021599 0.986849 0.953105 0.920345 0.888547 0.857689 0.827748 0.798704 0.770536 0.743222 0.716743 0.691078 0.666206 0.642109 0.618768 0.596162 0.574274 0.553085 0.532576 0.512732 0.493532 0.474962 0.457003 0.439640 0.422855 0.406634 0.390960 0.375818 0.361193 0.347071 0.333437 0.320277 0.307578 0.295325 0.283505 0.272106 0.261115 0.250519 0.240307 0.230466 0.220986 0.211855 0.203061 0.194595 0.186446 0.178603 0.171057 0.163798 0.156816 0.150103 0.143650 0.137447 0.131486 0.125760 0.120259 0.114977 0.109905 0.105037 0.100365 0.095882 0.091581 0.087456 0.083501 0.079710 0.076075 0.072593 0.069256 0.066060 0.062999 0.060069 0.057263 0.054579 0.052010 0.049552 0.047201 0.044954 0.042805 0.040751 0.038788 0.036913 0.035121 0.033410 0.031777 0.030217 0.028729 0.027309 0.025954 0.024661 0.023429 0.022254 0.021134 0.020066 0.019049 0.018080 0.017157 0.016278 0.015442 0.014645 0.013888 0.013166 0.012481 0.011828 0.011208 0.010618 0.010058 0.009525 0.009019 0.008538 0.008081 0.007648 0.007236 0.006846 0.006475 0.006123 0.005790 0.005473 0.005173 0.004889 0.004619 0.004364 0.004122 0.003892 0.003675 0.003469 0.003275 0.003090 0.002916 0.002751 0.002595 0.002447 0.002307 0.002175 0.002051 0.001933 0.001821 0.001716 0.001616 0.001522 0.001434 0.001350 0.001271 0.001196 0.001126 0.001059 0.000997 0.000937 0.000882 0.000829 0.000780 0.000733 0.000689 0.000647 0.000608 0.000572 0.000537 0.000504 0.000474 0.000445 0.000418 0.000392 0.000368 0.000345 0.000324 0.000304 0.000285 0.000268 0.000251 0.000235 0.000221 0.000207 0.000194 0.000182 0.000170 0.000160 0.000149 0.000140 0.000131 0.000123 0.000115 0.000108 0.000101 0.000094 0.000088 0.000083 0.000077 0.000072 0.000068 0.000063 0.000059 0.000055 0.000052 0.000048 0.000045 0.000042 0.000040 0.000037 0.000035 0.000032 0.000030 0.000028 0.000026 0.000025 0.000023 0.000021 0.000020 0.000019 0.000018 0.000016 0.000015 0.000014 0.000013 0.000012 0.000012 0.000011 0.000010 0.000009 0.000009 0.000008 0.000008 0.000007 0.000007 0.000006 0.000006 0.000005 0.000005 0.000005 0.000004 0.000004 0.000004 0.000004 0.000003 0.000003 0.000003 0.000003 0.000002 0.000002 0.000002 0.000002 0.000002 0.000002 0.000002 0.000002 0.000001 0.000001 0.000001 0.000001 0.000001 0.000001 0.000001 0.000001 0.000001 0.000001 0.000001 0.000001 0.000001 0.000001 0.000001 0.000000 0.000000 0.000000 0.000000 0.000000 0.000000 0.000000 0.000000 0.000000 0.000000 0.000000 0.000000 0.000000 0.000000 0.000000 0.000000 0.000000 0.000000 0.000000 0.000000 0.000000 0.000000 0.000000 0.000000
2.327316 2.249730 2.180727 2.115241 2.051363 1.989063 1.928315 1.869092 1.811366 1.755111 1.700301 1.646908 1.594905 1.544268 1.494969 1.446984 1.400285 1.354848 1.310647 1.267658 1.225855 1.185213 1.145710 1.107319 1.070019 1.033784 0.998592 0.964419 0.931243 0.899041 0.867791 0.837471 0.808060 0.779535 0.751877 0.725063 0.699075 0.673890 0.649491 0.625856 0.602968 0.580806 0.559352 0.538589 0.518497 0.499060 0.480260 0.462079 0.444502 0.427511 0.411091 0.395226 0.379899 0.365097 0.350804 0.337005 0.323686 0.310834 0.298434 0.286474 0.274939 0.263818 0.253097 0.242765 0.232809 0.223218 0.213981 0.205086 0.196522 0.188279 0.180347 0.172715 0.165374 0.158314 0.151526 0.145000 0.138729 0.132703 0.126913 0.121353 0.116013 0.110887 0.105967 0.101245 0.096715 0.092369 0.088201 0.084205 0.080375 0.076703 0.073185 0.069815 0.066587 0.063496 0.060537 0.057704 0.054994 0.052400 0.049919 0.047546 0.045278 0.043109 0.041036 0.039056 0.037164 0.035356 0.033630 0.031983 0.030410 0.028909 0.027477 0.026110 0.024807 0.023565 0.022381 0.021252 0.020176 0.019151 0.018175 0.017245 0.016360 0.015517 0.014715 0.013952 0.013226 0.012535 0.011878 0.011254 0.010660 0.010096 0.009560 0.009051 0.008568 0.008108 0.007672 0.007258 0.006866 0.006493 0.006140 0.005804 0.005486 0.005185 0.004899 0.004628 0.004372 0.004128 0.003898 0.003680 0.003474 0.003278 0.003093 0.002918 0.002753 0.002596 0.002448 0.002308 0.002175 0.002050 0.001932 0.001820 0.001715 0.001615 0.001521 0.001432 0.001348 0.001269 0.001194 0.001124 0.001057 0.000994 0.000935 0.000880 0.000827 0.000777 0.000731 0.000687 0.000645 0.000606 0.000570 0.000535 0.000502 0.000472 0.000443 0.000416 0.000390 0.000366 0.000344 0.000322 0.000302 0.000284 0.000266 0.000249 0.000234 0.000219 0.000206 0.000193 0.000180 0.000169 0.000158 0.000148 0.000139 0.000130 0.000122 0.000114 0.000107 0.000100 0.000094 0.000088 0.000082 0.000077 0.000072 0.000067 0.000063 0.000059 0.000055 0.000051 0.000048 0.000045 0.000042 0.000039 0.000037 0.000034 0.000032 0.000030 0.000028 0.000026 0.000024 0.000023 0.000021 0.000020 0.000019 0.000017 0.000016 0.000015 0.000014 0.000013 0.000012 0.000011 0.000011 0.000010 0.000009 0.000009 0.000008 0.000008 0.000007 0.000007 0.000006 0.000006 0.000005 0.000005 0.000005 0.000004 0.000004 0.000004 0.000003 0.000003 0.000003 0.000003 0.000003 0.000002 0.000002 0.000002 0.000002 0.000002 0.000002 0.000002 0.000001 0.000001 0.000001 0.000001 0.000001 0.000001 0.000001 0.000001 0.000001 0.000001 0.000001 0.000001 0.000001 0.000001 0.000001 0.000001 0.000000 0.000000 0.000000 0.000000 0.000000 0.000000 0.000000 0.000000 0.000000 0.000000 0.000000 0.000000 0.000000 0.000000 0.000000 0.000000 0.000000 0.000000 0.000000 0.000000 0.000000 0.000000 0.000000 0.000000
2.361730 2.280307 2.207788 2.141413 2.076723 2.013631 1.952111 1.892133 1.833672 1.776700 1.721190 1.667116 1.614450 1.563165 1.513237 1.464637 1.417342 1.371323 1.326558 1.283018 1.240681 1.199520 1.159512 1.120631 1.082854 1.046156 1.010515 0.975907 0.942308 0.909696 0.878049 0.847344 0.817559 0.788672 0.760664 0.733511 0.707194 0.681692 0.656985 0.633053 0.609877 0.587437 0.565715 0.544692 0.524350 0.504671 0.485638 0.467232 0.449437 0.432237 0.415615 0.399555 0.384041 0.369058 0.354591 0.340625 0.327145 0.314138 0.301590 0.289486 0.277814 0.266560 0.255712 0.245258 0.235186 0.225482 0.216137 0.207139 0.198476 0.190139 0.182116 0.174397 0.166972 0.159833 0.152968 0.146370 0.140028 0.133936 0.128083 0.122461 0.117064 0.111882 0.106909 0.102137 0.097559 0.093167 0.088956 0.084918 0.081048 0.077339 0.073786 0.070381 0.067121 0.063999 0.061011 0.058151 0.055414 0.052795 0.050291 0.047896 0.045606 0.043417 0.041325 0.039327 0.037417 0.035594 0.033853 0.032191 0.030604 0.029091 0.027646 0.026269 0.024955 0.023703 0.022509 0.021371 0.020287 0.019254 0.018270 0.017333 0.016442 0.015593 0.014785 0.014016 0.013285 0.012590 0.011929 0.011300 0.010703 0.010135 0.009596 0.009084 0.008597 0.008135 0.007697 0.007281 0.006886 0.006511 0.006156 0.005819 0.005499 0.005196 0.004909 0.004637 0.004379 0.004135 0.003904 0.003685 0.003478 0.003282 0.003096 0.002920 0.002754 0.002597 0.002449 0.002308 0.002175 0.002050 0.001931 0.001819 0.001714 0.001614 0.001519 0.001430 0.001346 0.001267 0.001192 0.001122 0.001055 0.000992 0.000933 0.000877 0.000825 0.000775 0.000729 0.000685 0.000643 0.000604 0.000568 0.000533 0.000500 0.000470 0.000441 0.000414 0.000388 0.000364 0.000342 0.000321 0.000301 0.000282 0.000265 0.000248 0.000232 0.000218 0.000204 0.000191 0.000179 0.000168 0.000157 0.000147 0.000138 0.000129 0.000121 0.000113 0.000106 0.000099 0.000093 0.000087 0.000081 0.000076 0.000071 0.000066 0.000062 0.000058 0.000054 0.000051 0.000047 0.000044 0.000041 0.000039 0.000036 0.000034 0.000032 0.000030 0.000028 0.000026 0.000024 0.000022 0.000021 0.000020 0.000018 0.000017 0.000016 0.000015 0.000014 0.000013 0.000012 0.000011 0.000010 0.000010 0.000009 0.000009 0.000008 0.000007 0.000007 0.000006 0.000006 0.000006 0.000005 0.000005 0.000005 0.000004 0.000004 0.000004 0.000003 0.000003 0.000003 0.000003 0.000003 0.000002 0.000002 0.000002 0.000002 0.000002 0.000002 0.000002 0.000001 0.000001 0.000001 0.000001 0.000001 0.000001 0.000001 0.000001 0.000001 0.000001 0.000001 0.000001 0.000001 0.000001 0.000001 0.000000 0.000000 0.000000 0.000000 0.000000 0.000000 0.000000 0.000000 0.000000 0.000000 0.000000 0.000000 0.000000 0.000000 0.000000 0.000000 0.000000 0.000000 0.000000 0.000000 0.000000 0.000000 0.000000 0.000000 0.000000
2.397828 2.312531 2.236180 2.167987 2.102474 2.038578 1.976273 1.915530 1.856323 1.798623 1.742403 1.687636 1.634296 1.582355 1.531786 1.482564 1.434662 1.388054 1.342714 1.298617 1.255737 1.214048 1.173527 1.134148 1.095887 1.058720 1.022623 0.987572 0.953544 0.920516 0.888464 0.857368 0.827204 0.797950 0.769585 0.742088 0.715437 0.689612 0.664593 0.640359 0.616891 0.594169 0.572175 0.550888 0.530292 0.510367 0.491096 0.472462 0.454447 0.437034 0.420207 0.403949 0.388245 0.373078 0.358435 0.344299 0.330656 0.317491 0.304791 0.292542 0.280730 0.269342 0.258366 0.247788 0.237596 0.227779 0.218325 0.209221 0.200458 0.192024 0.183909 0.176102 0.168593 0.161372 0.154430 0.147758 0.141346 0.135186 0.129268 0.123585 0.118129 0.112891 0.107864 0.103041 0.098414 0.093976 0.089720 0.085641 0.081730 0.077983 0.074393 0.070955 0.067662 0.064509 0.061491 0.058603 0.055839 0.053195 0.050667 0.048249 0.045938 0.043728 0.041617 0.039601 0.037674 0.035834 0.034078 0.032401 0.030801 0.029275 0.027818 0.026429 0.025104 0.023842 0.022638 0.021491 0.020399 0.019358 0.018367 0.017423 0.016524 0.015669 0.014856 0.014082 0.013346 0.012646 0.011980 0.011347 0.010746 0.010175 0.009632 0.009117 0.008627 0.008163 0.007722 0.007303 0.006906 0.006530 0.006172 0.005834 0.005512 0.005208 0.004920 0.004646 0.004387 0.004142 0.003910 0.003690 0.003482 0.003285 0.003099 0.002923 0.002756 0.002598 0.002449 0.002309 0.002175 0.002050 0.001931 0.001819 0.001713 0.001612 0.001518 0.001429 0.001345 0.001265 0.001190 0.001120 0.001053 0.000990 0.000931 0.000875 0.000823 0.000773 0.000726 0.000683 0.000641 0.000602 0.000565 0.000531 0.000498 0.000468 0.000439 0.000412 0.000387 0.000363 0.000340 0.000319 0.000299 0.000281 0.000263 0.000247 0.000231 0.000216 0.000203 0.000190 0.000178 0.000167 0.000156 0.000146 0.000137 0.000128 0.000120 0.000112 0.000105 0.000098 0.000092 0.000086 0.000080 0.000075 0.000070 0.000066 0.000062 0.000058 0.000054 0.000050 0.000047 0.000044 0.000041 0.000038 0.000036 0.000033 0.000031 0.000029 0.000027 0.000025 0.000024 0.000022 0.000021 0.000019 0.000018 0.000017 0.000016 0.000015 0.000014 0.000013 0.000012 0.000011 0.000010 0.000010 0.000009 0.000008 0.000008 0.000007 0.000007 0.000006 0.000006 0.000005 0.000005 0.000005 0.000004 0.000004 0.000004 0.000004 0.000003 0.000003 0.000003 0.000003 0.000003 0.000002 0.000002 0.000002 0.000002 0.000002 0.000002 0.000002 0.000001 0.000001 0.000001 0.000001 0.000001 0.000001 0.000001 0.000001 0.000001 0.000001 0.000001 0.000001 0.000001 0.000001 0.000001 0.000000 0.000000 0.000000 0.000000 0.000000 0.000000 0.000000 0.000000 0.000000 0.000000 0.000000 0.000000 0.000000 0.000000 0.000000 0.000000 0.000000 0.000000 0.000000 0.000000 0.000000 0.000000 0.000000 0.000000 0.000000
2.435635 2.346426 2.266206 2.194971 2.128622 2.063911 2.000809 1.939289 1.879324 1.820884 1.763944 1.708474 1.654449 1.601841 1.550624 1.500769 1.452251 1.405044 1.359121 1.314457 1.271026 1.228802 1.187760 1.147875 1.109123 1.071478 1.034918 0.999418 0.964953 0.931502 0.899041 0.867547 0.836997 0.807370 0.778644 0.750797 0.723807 0.697655 0.672318 0.647777 0.624013 0.601004 0.578732 0.557179 0.536324 0.516149 0.496638 0.477771 0.459532 0.441903 0.424867 0.408409 0.392511 0.377159 0.362336 0.348027 0.334218 0.320894 0.308040 0.295643 0.283689 0.272165 0.261058 0.250354 0.240042 0.230109 0.220543 0.211334 0.202469 0.193937 0.185728 0.177831 0.170236 0.162934 0.155913 0.149166 0.142682 0.136453 0.130470 0.124724 0.119208 0.113913 0.108832 0.103957 0.099280 0.094795 0.090495 0.086373 0.082422 0.078636 0.075009 0.071536 0.068209 0.065025 0.061977 0.059060 0.056269 0.053600 0.051047 0.048607 0.046273 0.044044 0.041913 0.039878 0.037934 0.036078 0.034306 0.032614 0.031000 0.029460 0.027992 0.026591 0.025255 0.023982 0.022769 0.021613 0.020512 0.019463 0.018464 0.017513 0.016608 0.015747 0.014927 0.014148 0.013407 0.012702 0.012032 0.011395 0.010790 0.010215 0.009669 0.009150 0.008658 0.008190 0.007747 0.007326 0.006927 0.006548 0.006189 0.005848 0.005526 0.005220 0.004930 0.004655 0.004395 0.004149 0.003916 0.003695 0.003486 0.003289 0.003102 0.002925 0.002758 0.002600 0.002450 0.002309 0.002175 0.002049 0.001930 0.001818 0.001711 0.001611 0.001517 0.001427 0.001343 0.001263 0.001188 0.001118 0.001051 0.000988 0.000929 0.000873 0.000821 0.000771 0.000724 0.000680 0.000639 0.000600 0.000563 0.000529 0.000496 0.000466 0.000437 0.000410 0.000385 0.000361 0.000338 0.000317 0.000298 0.000279 0.000261 0.000245 0.000230 0.000215 0.000202 0.000189 0.000177 0.000166 0.000155 0.000145 0.000136 0.000127 0.000119 0.000111 0.000104 0.000097 0.000091 0.000085 0.000080 0.000075 0.000070 0.000065 0.000061 0.000057 0.000053 0.000050 0.000046 0.000043 0.000041 0.000038 0.000035 0.000033 0.000031 0.000029 0.000027 0.000025 0.000023 0.000022 0.000020 0.000019 0.000018 0.000017 0.000015 0.000014 0.000013 0.000013 0.000012 0.000011 0.000010 0.000009 0.000009 0.000008 0.000008 0.000007 0.000007 0.000006 0.000006 0.000005 0.000005 0.000005 0.000004 0.000004 0.000004 0.000004 0.000003 0.000003 0.000003 0.000003 0.000002 0.000002 0.000002 0.000002 0.000002 0.000002 0.000002 0.000002 0.000001 0.000001 0.000001 0.000001 0.000001 0.000001 0.000001 0.000001 0.000001 0.000001 0.000001 0.000001 0.000001 0.000001 0.000001 0.000000 0.000000 0.000000 0.000000 0.000000 0.000000 0.000000 0.000000 0.000000 0.000000 0.000000 0.000000 0.000000 0.000000 0.000000 0.000000 0.000000 0.000000 0.000000 0.000000 0.000000 0.000000 0.000000 0.000000 0.000000
2.475175 2.382016 2.297888 2.222803 2.155174 2.089635 2.025725 1.963416 1.902681 1.843491 1.785819 1.729636 1.674916 1.621631 1.569754 1.519257 1.470114 1.422299 1.375784 1.330544 1.286553 1.243785 1.202214 1.161815 1.122564 1.084435 1.047404 1.011447 0.976540 0.942659 0.909781 0.877883 0.846943 0.816936 0.787843 0.759640 0.732306 0.705821 0.680162 0.655310 0.631243 0.607944 0.585391 0.563565 0.542447 0.522020 0.502264 0.483161 0.464694 0.446845 0.429598 0.412936 0.396842 0.381300 0.366295 0.351811 0.337833 0.324346 0.311337 0.298790 0.286692 0.275029 0.263789 0.252957 0.242523 0.232472 0.222794 0.213476 0.204508 0.195877 0.187573 0.179585 0.171903 0.164517 0.157417 0.150593 0.144036 0.137737 0.131688 0.125879 0.120302 0.114949 0.109813 0.104885 0.100158 0.095626 0.091280 0.087114 0.083122 0.079297 0.075633 0.072124 0.068764 0.065547 0.062469 0.059523 0.056705 0.054010 0.051433 0.048969 0.046613 0.044363 0.042212 0.040158 0.038197 0.036324 0.034536 0.032830 0.031202 0.029649 0.028167 0.026755 0.025408 0.024125 0.022901 0.021736 0.020626 0.019569 0.018563 0.017604 0.016693 0.015825 0.015000 0.014215 0.013468 0.012758 0.012084 0.011443 0.010834 0.010255 0.009705 0.009184 0.008688 0.008218 0.007772 0.007349 0.006947 0.006567 0.006206 0.005863 0.005539 0.005232 0.004940 0.004665 0.004403 0.004156 0.003922 0.003700 0.003491 0.003292 0.003105 0.002927 0.002759 0.002601 0.002451 0.002309 0.002175 0.002049 0.001930 0.001817 0.001710 0.001610 0.001515 0.001426 0.001341 0.001262 0.001187 0.001116 0.001049 0.000986 0.000927 0.000871 0.000818 0.000769 0.000722 0.000678 0.000637 0.000598 0.000561 0.000527 0.000494 0.000464 0.000435 0.000408 0.000383 0.000359 0.000337 0.000316 0.000296 0.000277 0.000260 0.000244 0.000228 0.000214 0.000200 0.000187 0.000176 0.000164 0.000154 0.000144 0.000135 0.000126 0.000118 0.000110 0.000103 0.000097 0.000090 0.000084 0.000079 0.000074 0.000069 0.000065 0.000060 0.000056 0.000053 0.000049 0.000046 0.000043 0.000040 0.000037 0.000035 0.000033 0.000030 0.000028 0.000027 0.000025 0.000023 0.000022 0.000020 0.000019 0.000018 0.000016 0.000015 0.000014 0.000013 0.000012 0.000012 0.000011 0.000010 0.000009 0.000009 0.000008 0.000008 0.000007 0.000007 0.000006 0.000006 0.000005 0.000005 0.000005 0.000004 0.000004 0.000004 0.000003 0.000003 0.000003 0.000003 0.000003 0.000002 0.000002 0.000002 0.000002 0.000002 0.000002 0.000002 0.000001 0.000001 0.000001 0.000001 0.000001 0.000001 0.000001 0.000001 0.000001 0.000001 0.000001 0.000001 0.000001 0.000001 0.000001 0.000000 0.000000 0.000000 0.000000 0.000000 0.000000 0.000000 0.000000 0.000000 0.000000 0.000000 0.000000 0.000000 0.000000 0.000000 0.000000 0.000000 0.000000 0.000000 0.000000 0.000000 0.000000 0.000000 0.000000 0.000000 0.000000
2.516474 2.419326 2.331252 2.252264 2.182138 2.115758 2.051027 1.987918 1.926401 1.866450 1.808034 1.751128 1.695702 1.641729 1.589182 1.538033 1.488255 1.439822 1.392706 1.346882 1.302322 1.259001 1.216893 1.175973 1.136214 1.097593 1.060085 1.023664 0.988307 0.953990 0.920689 0.888380 0.857042 0.826651 0.797184 0.768620 0.740937 0.714113 0.688126 0.662958 0.638585 0.614990 0.592151 0.570049 0.548665 0.527980 0.507975 0.488632 0.469934 0.451862 0.434400 0.417531 0.401237 0.385503 0.370313 0.355651 0.341502 0.327850 0.314682 0.301983 0.289739 0.277936 0.266560 0.255599 0.245040 0.234870 0.225078 0.215650 0.206576 0.197844 0.189444 0.181363 0.173593 0.166122 0.158941 0.152040 0.145409 0.139040 0.132923 0.127049 0.121411 0.115999 0.110807 0.105826 0.101048 0.096467 0.092075 0.087865 0.083831 0.079967 0.076265 0.072720 0.069325 0.066077 0.062967 0.059992 0.057147 0.054425 0.051823 0.049335 0.046957 0.044686 0.042515 0.040442 0.038463 0.036573 0.034769 0.033048 0.031405 0.029839 0.028345 0.026920 0.025562 0.024268 0.023035 0.021860 0.020742 0.019676 0.018662 0.017697 0.016778 0.015904 0.015073 0.014282 0.013530 0.012816 0.012136 0.011491 0.010878 0.010296 0.009743 0.009218 0.008719 0.008246 0.007798 0.007372 0.006968 0.006585 0.006222 0.005878 0.005552 0.005244 0.004951 0.004674 0.004412 0.004163 0.003928 0.003706 0.003495 0.003296 0.003108 0.002930 0.002761 0.002602 0.002452 0.002310 0.002175 0.002049 0.001929 0.001816 0.001709 0.001609 0.001514 0.001424 0.001339 0.001260 0.001185 0.001114 0.001047 0.000984 0.000925 0.000869 0.000816 0.000767 0.000720 0.000676 0.000635 0.000596 0.000559 0.000525 0.000492 0.000462 0.000433 0.000406 0.000381 0.000357 0.000335 0.000314 0.000294 0.000276 0.000258 0.000242 0.000227 0.000212 0.000199 0.000186 0.000174 0.000163 0.000153 0.000143 0.000134 0.000125 0.000117 0.000110 0.000102 0.000096 0.000090 0.000084 0.000078 0.000073 0.000068 0.000064 0.000060 0.000056 0.000052 0.000049 0.000045 0.000042 0.000040 0.000037 0.000035 0.000032 0.000030 0.000028 0.000026 0.000024 0.000023 0.000021 0.000020 0.000019 0.000017 0.000016 0.000015 0.000014 0.000013 0.000012 0.000011 0.000011 0.000010 0.000009 0.000009 0.000008 0.000007 0.000007 0.000006 0.000006 0.000006 0.000005 0.000005 0.000005 0.000004 0.000004 0.000004 0.000003 0.000003 0.000003 0.000003 0.000003 0.000002 0.000002 0.000002 0.000002 0.000002 0.000002 0.000002 0.000001 0.000001 0.000001 0.000001 0.000001 0.000001 0.000001 0.000001 0.000001 0.000001 0.000001 0.000001 0.000001 0.000001 0.000001 0.000000 0.000000 0.000000 0.000000 0.000000 0.000000 0.000000 0.000000 0.000000 0.000000 0.000000 0.000000 0.000000 0.000000 0.000000 0.000000 0.000000 0.000000 0.000000 0.000000 0.000000 0.000000 0.000000 0.000000 0.000000 0.000000
2.559557 2.458381 2.366323 2.283393 2.209606 2.142287 2.076723 2.012801 1.950491 1.889766 1.830597 1.772955 1.716812 1.662141 1.608914 1.557103 1.506680 1.457620 1.409893 1.363475 1.318338 1.274456 1.231802 1.190351 1.150078 1.110957 1.072963 1.036071 1.000257 0.965497 0.931766 0.899041 0.867299 0.836516 0.806671 0.777739 0.749701 0.722533 0.696214 0.670724 0.646041 0.622144 0.599015 0.576632 0.554977 0.534031 0.513773 0.494187 0.475254 0.456956 0.439275 0.422195 0.405699 0.389770 0.374392 0.359549 0.345226 0.331407 0.318078 0.305224 0.292831 0.280885 0.269372 0.258279 0.247594 0.237303 0.227394 0.217855 0.208674 0.199840 0.191342 0.183167 0.175307 0.167751 0.160487 0.153507 0.146802 0.140360 0.134175 0.128236 0.122535 0.117064 0.111815 0.106779 0.101950 0.097320 0.092881 0.088627 0.084550 0.080645 0.076905 0.073323 0.069894 0.066612 0.063472 0.060467 0.057594 0.054845 0.052218 0.049706 0.047306 0.045012 0.042822 0.040729 0.038732 0.036825 0.035005 0.033268 0.031611 0.030031 0.028524 0.027088 0.025718 0.024413 0.023170 0.021986 0.020858 0.019785 0.018763 0.017790 0.016864 0.015984 0.015146 0.014350 0.013593 0.012873 0.012189 0.011540 0.010923 0.010336 0.009780 0.009252 0.008750 0.008275 0.007823 0.007395 0.006989 0.006604 0.006239 0.005894 0.005566 0.005256 0.004962 0.004683 0.004420 0.004170 0.003934 0.003711 0.003499 0.003300 0.003111 0.002932 0.002763 0.002603 0.002453 0.002310 0.002175 0.002048 0.001928 0.001815 0.001708 0.001607 0.001512 0.001422 0.001338 0.001258 0.001183 0.001112 0.001045 0.000982 0.000923 0.000867 0.000814 0.000764 0.000718 0.000674 0.000633 0.000594 0.000557 0.000523 0.000490 0.000460 0.000431 0.000405 0.000379 0.000356 0.000333 0.000312 0.000293 0.000274 0.000257 0.000241 0.000225 0.000211 0.000198 0.000185 0.000173 0.000162 0.000152 0.000142 0.000133 0.000124 0.000116 0.000109 0.000102 0.000095 0.000089 0.000083 0.000078 0.000072 0.000068 0.000063 0.000059 0.000055 0.000052 0.000048 0.000045 0.000042 0.000039 0.000037 0.000034 0.000032 0.000030 0.000028 0.000026 0.000024 0.000023 0.000021 0.000020 0.000018 0.000017 0.000016 0.000015 0.000014 0.000013 0.000012 0.000011 0.000010 0.000010 0.000009 0.000008 0.000008 0.000007 0.000007 0.000006 0.000006 0.000006 0.000005 0.000005 0.000004 0.000004 0.000004 0.000004 0.000003 0.000003 0.000003 0.000003 0.000003 0.000002 0.000002 0.000002 0.000002 0.000002 0.000002 0.000002 0.000001 0.000001 0.000001 0.000001 0.000001 0.000001 0.000001 0.000001 0.000001 0.000001 0.000001 0.000001 0.000001 0.000001 0.000001 0.000000 0.000000 0.000000 0.000000 0.000000 0.000000 0.000000 0.000000 0.000000 0.000000 0.000000 0.000000 0.000000 0.000000 0.000000 0.000000 0.000000 0.000000 0.000000 0.000000 0.000000 0.000000 0.000000 0.000000 0.000000 0.000000
2.604450 2.499207 2.403124 2.316215 2.238491 2.169229 2.102820 2.038072 1.974958 1.913447 1.853511 1.795123 1.738253 1.682873 1.628955 1.576471 1.525394 1.475696 1.427350 1.380329 1.334605 1.290152 1.246945 1.204956 1.164160 1.124531 1.086043 1.048673 1.012395 0.977184 0.943016 0.909868 0.877715 0.846535 0.816305 0.787001 0.758601 0.731084 0.704428 0.678610 0.653611 0.629410 0.605985 0.583318 0.561387 0.540175 0.519661 0.499827 0.480655 0.462127 0.444225 0.426931 0.410229 0.394101 0.378532 0.363505 0.349005 0.335017 0.321524 0.308513 0.295969 0.283878 0.272226 0.260999 0.250185 0.239771 0.229744 0.220092 0.210803 0.201865 0.193267 0.184997 0.177046 0.169402 0.162055 0.154995 0.148213 0.141699 0.135444 0.129439 0.123675 0.118143 0.112836 0.107746 0.102864 0.098184 0.093697 0.089398 0.085278 0.081332 0.077553 0.073934 0.070470 0.067155 0.063983 0.060948 0.058046 0.055271 0.052617 0.050081 0.047658 0.045343 0.043132 0.041020 0.039004 0.037080 0.035243 0.033491 0.031819 0.030225 0.028706 0.027257 0.025876 0.024560 0.023307 0.022113 0.020976 0.019894 0.018864 0.017884 0.016951 0.016064 0.015221 0.014419 0.013656 0.012932 0.012243 0.011589 0.010968 0.010378 0.009818 0.009286 0.008782 0.008303 0.007849 0.007419 0.007010 0.006623 0.006257 0.005909 0.005580 0.005268 0.004972 0.004693 0.004428 0.004177 0.003940 0.003716 0.003504 0.003303 0.003114 0.002934 0.002765 0.002605 0.002453 0.002310 0.002175 0.002048 0.001928 0.001814 0.001707 0.001606 0.001511 0.001421 0.001336 0.001256 0.001181 0.001110 0.001043 0.000980 0.000920 0.000864 0.000812 0.000762 0.000716 0.000672 0.000630 0.000592 0.000555 0.000521 0.000488 0.000458 0.000430 0.000403 0.000377 0.000354 0.000332 0.000311 0.000291 0.000273 0.000255 0.000239 0.000224 0.000210 0.000196 0.000184 0.000172 0.000161 0.000150 0.000141 0.000132 0.000123 0.000115 0.000108 0.000101 0.000094 0.000088 0.000082 0.000077 0.000072 0.000067 0.000063 0.000059 0.000055 0.000051 0.000048 0.000044 0.000042 0.000039 0.000036 0.000034 0.000031 0.000029 0.000027 0.000026 0.000024 0.000022 0.000021 0.000019 0.000018 0.000017 0.000016 0.000015 0.000014 0.000013 0.000012 0.000011 0.000010 0.000010 0.000009 0.000008 0.000008 0.000007 0.000007 0.000006 0.000006 0.000005 0.000005 0.000005 0.000004 0.000004 0.000004 0.000004 0.000003 0.000003 0.000003 0.000003 0.000002 0.000002 0.000002 0.000002 0.000002 0.000002 0.000002 0.000001 0.000001 0.000001 0.000001 0.000001 0.000001 0.000001 0.000001 0.000001 0.000001 0.000001 0.000001 0.000001 0.000001 0.000001 0.000000 0.000000 0.000000 0.000000 0.000000 0.000000 0.000000 0.000000 0.000000 0.000000 0.000000 0.000000 0.000000 0.000000 0.000000 0.000000 0.000000 0.000000 0.000000 0.000000 0.000000 0.000000 0.000000 0.000000 0.000000 0.000000 0.000000
2.651180 2.541829 2.441683 2.350753 2.269054 2.196592 2.129325 2.063739 1.999807 1.937499 1.876786 1.817639 1.760030 1.703930 1.649311 1.596144 1.544402 1.494057 1.445081 1.397447 1.351128 1.306096 1.262325 1.219789 1.178462 1.138317 1.099329 1.061473 1.024723 0.989054 0.954443 0.920865 0.888295 0.856711 0.826089 0.796407 0.767641 0.739769 0.712769 0.686620 0.661299 0.636788 0.613063 0.590106 0.567896 0.546413 0.525639 0.505554 0.486140 0.467377 0.449250 0.431739 0.414827 0.398498 0.382735 0.367522 0.352842 0.338680 0.325022 0.311851 0.299153 0.286915 0.275121 0.263759 0.252815 0.242276 0.232129 0.222362 0.212962 0.203919 0.195220 0.186853 0.178809 0.171077 0.163645 0.156505 0.149645 0.143057 0.136731 0.130658 0.124830 0.119237 0.113871 0.108725 0.103790 0.099059 0.094525 0.090179 0.086016 0.082029 0.078210 0.074554 0.071054 0.067705 0.064501 0.061435 0.058504 0.055701 0.053022 0.050462 0.048015 0.045678 0.043446 0.041314 0.039279 0.037337 0.035484 0.033716 0.032030 0.030422 0.028889 0.027428 0.026035 0.024709 0.023445 0.022241 0.021096 0.020005 0.018967 0.017979 0.017039 0.016146 0.015296 0.014488 0.013720 0.012990 0.012297 0.011639 0.011013 0.010419 0.009856 0.009321 0.008813 0.008332 0.007875 0.007442 0.007032 0.006643 0.006274 0.005924 0.005593 0.005280 0.004983 0.004702 0.004436 0.004185 0.003946 0.003721 0.003508 0.003307 0.003116 0.002937 0.002767 0.002606 0.002454 0.002311 0.002175 0.002048 0.001927 0.001813 0.001706 0.001605 0.001509 0.001419 0.001334 0.001254 0.001179 0.001108 0.001041 0.000978 0.000918 0.000862 0.000810 0.000760 0.000713 0.000670 0.000628 0.000590 0.000553 0.000519 0.000486 0.000456 0.000428 0.000401 0.000376 0.000352 0.000330 0.000309 0.000289 0.000271 0.000254 0.000238 0.000223 0.000208 0.000195 0.000182 0.000171 0.000160 0.000149 0.000140 0.000131 0.000122 0.000114 0.000107 0.000100 0.000093 0.000087 0.000081 0.000076 0.000071 0.000066 0.000062 0.000058 0.000054 0.000050 0.000047 0.000044 0.000041 0.000038 0.000036 0.000033 0.000031 0.000029 0.000027 0.000025 0.000024 0.000022 0.000020 0.000019 0.000018 0.000017 0.000015 0.000014 0.000013 0.000013 0.000012 0.000011 0.000010 0.000009 0.000009 0.000008 0.000008 0.000007 0.000007 0.000006 0.000006 0.000005 0.000005 0.000005 0.000004 0.000004 0.000004 0.000003 0.000003 0.000003 0.000003 0.000003 0.000002 0.000002 0.000002 0.000002 0.000002 0.000002 0.000002 0.000001 0.000001 0.000001 0.000001 0.000001 0.000001 0.000001 0.000001 0.000001 0.000001 0.000001 0.000001 0.000001 0.000001 0.000001 0.000000 0.000000 0.000000 0.000000 0.000000 0.000000 0.000000 0.000000 0.000000 0.000000 0.000000 0.000000 0.000000 0.000000 0.000000 0.000000 0.000000 0.000000 0.000000 0.000000 0.000000 0.000000 0.000000 0.000000 0.000000 0.000000 0.000000
2.699772 2.586274 2.482024 2.387035 2.301321 2.224894 2.156245 2.089809 2.025046 1.961928 1.900426 1.840509 1.782149 1.725318 1.669987 1.616127 1.563709 1.512707 1.463091 1.414835 1.367911 1.322291 1.277949 1.234857 1.192990 1.152321 1.112824 1.074474 1.037244 1.001111 0.966049 0.932034 0.899041 0.867047 0.836027 0.805960 0.776821 0.748589 0.721240 0.694753 0.669107 0.644280 0.620251 0.597000 0.574505 0.552748 0.531709 0.511369 0.491708 0.472708 0.454352 0.436620 0.419496 0.402962 0.387002 0.371599 0.356737 0.342399 0.328572 0.315239 0.302386 0.289997 0.278060 0.266560 0.255483 0.244817 0.234549 0.224665 0.215153 0.206003 0.197201 0.188736 0.180598 0.172776 0.165258 0.158035 0.151097 0.144434 0.138036 0.131895 0.126001 0.120346 0.114921 0.109718 0.104729 0.099947 0.095363 0.090971 0.086764 0.082734 0.078875 0.075181 0.071645 0.068262 0.065025 0.061929 0.058968 0.056138 0.053432 0.050846 0.048376 0.046017 0.043763 0.041612 0.039558 0.037598 0.035728 0.033944 0.032243 0.030621 0.029075 0.027601 0.026197 0.024859 0.023585 0.022371 0.021216 0.020117 0.019070 0.018075 0.017128 0.016228 0.015372 0.014558 0.013785 0.013050 0.012352 0.011689 0.011059 0.010462 0.009894 0.009356 0.008845 0.008361 0.007902 0.007466 0.007053 0.006662 0.006291 0.005940 0.005607 0.005292 0.004994 0.004712 0.004445 0.004192 0.003953 0.003727 0.003513 0.003311 0.003119 0.002939 0.002768 0.002607 0.002455 0.002311 0.002175 0.002047 0.001926 0.001812 0.001705 0.001603 0.001508 0.001417 0.001332 0.001252 0.001177 0.001106 0.001039 0.000975 0.000916 0.000860 0.000807 0.000758 0.000711 0.000667 0.000626 0.000587 0.000551 0.000517 0.000484 0.000454 0.000426 0.000399 0.000374 0.000350 0.000328 0.000307 0.000288 0.000269 0.000252 0.000236 0.000221 0.000207 0.000194 0.000181 0.000169 0.000159 0.000148 0.000139 0.000130 0.000121 0.000113 0.000106 0.000099 0.000092 0.000086 0.000081 0.000075 0.000070 0.000066 0.000061 0.000057 0.000054 0.000050 0.000047 0.000044 0.000041 0.000038 0.000035 0.000033 0.000031 0.000029 0.000027 0.000025 0.000023 0.000022 0.000020 0.000019 0.000018 0.000016 0.000015 0.000014 0.000013 0.000012 0.000011 0.000011 0.000010 0.000009 0.000009 0.000008 0.000007 0.000007 0.000006 0.000006 0.000006 0.000005 0.000005 0.000005 0.000004 0.000004 0.000004 0.000003 0.000003 0.000003 0.000003 0.000003 0.000002 0.000002 0.000002 0.000002 0.000002 0.000002 0.000002 0.000001 0.000001 0.000001 0.000001 0.000001 0.000001 0.000001 0.000001 0.000001 0.000001 0.000001 0.000001 0.000001 0.000001 0.000001 0.000000 0.000000 0.000000 0.000000 0.000000 0.000000 0.000000 0.000000 0.000000 0.000000 0.000000 0.000000 0.000000 0.000000 0.000000 0.000000 0.000000 0.000000 0.000000 0.000000 0.000000 0.000000 0.000000 0.000000 0.000000 0.000000 0.000000
2.750256 2.632568 2.524174 2.425085 2.335316 2.254878 2.183588 2.116288 2.050683 1.986742 1.924438 1.863740 1.804618 1.747044 1.690990 1.636425 1.583322 1.531652 1.481387 1.432498 1.384959 1.338742 1.293819 1.250163 1.207747 1.166546 1.126532 1.087680 1.049964 1.013358 0.977838 0.943379 0.909956 0.877545 0.846122 0.815663 0.786146 0.757547 0.729844 0.703015 0.677037 0.651889 0.627551 0.604000 0.581217 0.559182 0.537874 0.517274 0.497362 0.478121 0.459532 0.441576 0.424236 0.407494 0.391334 0.375738 0.360690 0.346175 0.332176 0.318678 0.305666 0.293126 0.281043 0.269402 0.258191 0.247396 0.237004 0.227001 0.217376 0.208117 0.199210 0.190646 0.182413 0.174499 0.166894 0.159587 0.152570 0.145830 0.139360 0.133149 0.127189 0.121470 0.115985 0.110725 0.105681 0.100847 0.096213 0.091774 0.087522 0.083449 0.079550 0.075817 0.072244 0.068826 0.065556 0.062428 0.059438 0.056579 0.053847 0.051236 0.048742 0.046360 0.044085 0.041913 0.039840 0.037862 0.035975 0.034175 0.032459 0.030822 0.029262 0.027776 0.026360 0.025011 0.023726 0.022502 0.021338 0.020230 0.019175 0.018172 0.017218 0.016311 0.015448 0.014629 0.013850 0.013110 0.012407 0.011739 0.011106 0.010504 0.009933 0.009391 0.008878 0.008390 0.007928 0.007490 0.007075 0.006681 0.006309 0.005956 0.005621 0.005305 0.005005 0.004721 0.004453 0.004199 0.003959 0.003732 0.003517 0.003314 0.003122 0.002941 0.002770 0.002608 0.002456 0.002312 0.002175 0.002047 0.001926 0.001812 0.001704 0.001602 0.001506 0.001416 0.001331 0.001250 0.001175 0.001104 0.001036 0.000973 0.000914 0.000858 0.000805 0.000756 0.000709 0.000665 0.000624 0.000585 0.000549 0.000515 0.000482 0.000452 0.000424 0.000397 0.000372 0.000348 0.000326 0.000306 0.000286 0.000268 0.000251 0.000235 0.000220 0.000206 0.000192 0.000180 0.000168 0.000157 0.000147 0.000138 0.000129 0.000120 0.000112 0.000105 0.000098 0.000092 0.000086 0.000080 0.000075 0.000070 0.000065 0.000061 0.000057 0.000053 0.000049 0.000046 0.000043 0.000040 0.000037 0.000035 0.000033 0.000030 0.000028 0.000026 0.000025 0.000023 0.000021 0.000020 0.000019 0.000017 0.000016 0.000015 0.000014 0.000013 0.000012 0.000011 0.000011 0.000010 0.000009 0.000009 0.000008 0.000007 0.000007 0.000006 0.000006 0.000006 0.000005 0.000005 0.000004 0.000004 0.000004 0.000004 0.000003 0.000003 0.000003 0.000003 0.000002 0.000002 0.000002 0.000002 0.000002 0.000002 0.000002 0.000001 0.000001 0.000001 0.000001 0.000001 0.000001 0.000001 0.000001 0.000001 0.000001 0.000001 0.000001 0.000001 0.000001 0.000001 0.000000 0.000000 0.000000 0.000000 0.000000 0.000000 0.000000 0.000000 0.000000 0.000000 0.000000 0.000000 0.000000 0.000000 0.000000 0.000000 0.000000 0.000000 0.000000 0.000000 0.000000 0.000000 0.000000 0.000000 0.000000 0.000000 0.000000 0.000000
2.802657 2.680740 2.568160 2.464931 2.371065 2.286578 2.211480 2.143184 2.076723 2.011948 1.948829 1.887337 1.827442 1.769114 1.712325 1.657045 1.603245 1.550897 1.499972 1.450441 1.402278 1.355454 1.309940 1.265711 1.222739 1.180996 1.140457 1.101095 1.062885 1.025799 0.989814 0.954904 0.921043 0.888208 0.856375 0.825519 0.795617 0.766646 0.738583 0.711405 0.685091 0.659618 0.634965 0.611110 0.588034 0.565715 0.544134 0.523270 0.503104 0.483618 0.464792 0.446608 0.429049 0.412095 0.395732 0.379940 0.364704 0.350007 0.335834 0.322169 0.308997 0.296302 0.284070 0.272287 0.260940 0.250013 0.239495 0.229372 0.219632 0.210262 0.201250 0.192584 0.184253 0.176247 0.168553 0.161162 0.154063 0.147246 0.140702 0.134421 0.128393 0.122610 0.117064 0.111745 0.106646 0.101759 0.097075 0.092588 0.088289 0.084173 0.080233 0.076461 0.072851 0.069397 0.066094 0.062934 0.059914 0.057026 0.054267 0.051631 0.049112 0.046707 0.044410 0.042218 0.040126 0.038129 0.036225 0.034409 0.032677 0.031026 0.029452 0.027953 0.026524 0.025164 0.023868 0.022635 0.021461 0.020344 0.019281 0.018270 0.017309 0.016395 0.015526 0.014700 0.013916 0.013170 0.012462 0.011790 0.011152 0.010547 0.009972 0.009427 0.008910 0.008420 0.007955 0.007514 0.007097 0.006701 0.006326 0.005971 0.005635 0.005317 0.005016 0.004731 0.004461 0.004206 0.003965 0.003737 0.003522 0.003318 0.003126 0.002944 0.002772 0.002610 0.002456 0.002312 0.002175 0.002047 0.001925 0.001811 0.001703 0.001601 0.001505 0.001414 0.001329 0.001248 0.001173 0.001102 0.001034 0.000971 0.000912 0.000856 0.000803 0.000754 0.000707 0.000663 0.000622 0.000583 0.000547 0.000513 0.000480 0.000450 0.000422 0.000395 0.000370 0.000347 0.000325 0.000304 0.000285 0.000266 0.000249 0.000233 0.000218 0.000204 0.000191 0.000179 0.000167 0.000156 0.000146 0.000136 0.000128 0.000119 0.000111 0.000104 0.000097 0.000091 0.000085 0.000079 0.000074 0.000069 0.000064 0.000060 0.000056 0.000052 0.000049 0.000046 0.000043 0.000040 0.000037 0.000035 0.000032 0.000030 0.000028 0.000026 0.000024 0.000023 0.000021 0.000020 0.000018 0.000017 0.000016 0.000015 0.000014 0.000013 0.000012 0.000011 0.000010 0.000010 0.000009 0.000008 0.000008 0.000007 0.000007 0.000006 0.000006 0.000005 0.000005 0.000005 0.000004 0.000004 0.000004 0.000004 0.000003 0.000003 0.000003 0.000003 0.000002 0.000002 0.000002 0.000002 0.000002 0.000002 0.000002 0.000001 0.000001 0.000001 0.000001 0.000001 0.000001 0.000001 0.000001 0.000001 0.000001 0.000001 0.000001 0.000001 0.000001 0.000001 0.000000 0.000000 0.000000 0.000000 0.000000 0.000000 0.000000 0.000000 0.000000 0.000000 0.000000 0.000000 0.000000 0.000000 0.000000 0.000000 0.000000 0.000000 0.000000 0.000000 0.000000 0.000000 0.000000 0.000000 0.000000 0.000000 0.000000 0.000000
2.857004 2.730815 2.614008 2.506597 2.408596 2.320017 2.240874 2.170505 2.103175 2.037553 1.973607 1.911309 1.850628 1.791534 1.733998 1.677992 1.623484 1.570447 1.518852 1.468670 1.419872 1.372431 1.326318 1.281507 1.237968 1.195676 1.154604 1.114724 1.076011 1.038438 1.001980 0.966611 0.932306 0.899041 0.866791 0.835531 0.805238 0.775889 0.747460 0.719928 0.693272 0.667468 0.642495 0.618332 0.594957 0.572351 0.550491 0.529359 0.508935 0.489200 0.470133 0.451718 0.433935 0.416768 0.400197 0.384206 0.368779 0.353898 0.339548 0.325713 0.312377 0.299525 0.287143 0.275215 0.263729 0.252670 0.242024 0.231778 0.221921 0.212438 0.203319 0.194550 0.186121 0.178020 0.170236 0.162759 0.155578 0.148682 0.142063 0.135710 0.129614 0.123766 0.118158 0.112780 0.107624 0.102683 0.097948 0.093412 0.089068 0.084908 0.080925 0.077113 0.073466 0.069976 0.066639 0.063447 0.060396 0.057479 0.054692 0.052030 0.049487 0.047058 0.044740 0.042527 0.040415 0.038400 0.036478 0.034645 0.032898 0.031232 0.029644 0.028132 0.026691 0.025319 0.024013 0.022769 0.021586 0.020459 0.019388 0.018369 0.017400 0.016479 0.015604 0.014772 0.013982 0.013231 0.012519 0.011842 0.011200 0.010590 0.010012 0.009463 0.008943 0.008450 0.007982 0.007539 0.007119 0.006721 0.006344 0.005987 0.005650 0.005330 0.005027 0.004741 0.004470 0.004214 0.003972 0.003743 0.003526 0.003322 0.003129 0.002946 0.002774 0.002611 0.002457 0.002312 0.002175 0.002046 0.001925 0.001810 0.001701 0.001599 0.001503 0.001412 0.001327 0.001247 0.001171 0.001099 0.001032 0.000969 0.000910 0.000854 0.000801 0.000751 0.000705 0.000661 0.000620 0.000581 0.000545 0.000510 0.000478 0.000448 0.000420 0.000393 0.000368 0.000345 0.000323 0.000302 0.000283 0.000265 0.000248 0.000232 0.000217 0.000203 0.000190 0.000177 0.000166 0.000155 0.000145 0.000135 0.000127 0.000118 0.000110 0.000103 0.000096 0.000090 0.000084 0.000078 0.000073 0.000068 0.000064 0.000060 0.000056 0.000052 0.000048 0.000045 0.000042 0.000039 0.000037 0.000034 0.000032 0.000030 0.000028 0.000026 0.000024 0.000022 0.000021 0.000019 0.000018 0.000017 0.000016 0.000015 0.000014 0.000013 0.000012 0.000011 0.000010 0.000010 0.000009 0.000008 0.000008 0.000007 0.000007 0.000006 0.000006 0.000005 0.000005 0.000005 0.000004 0.000004 0.000004 0.000003 0.000003 0.000003 0.000003 0.000003 0.000002 0.000002 0.000002 0.000002 0.000002 0.000002 0.000002 0.000001 0.000001 0.000001 0.000001 0.000001 0.000001 0.000001 0.000001 0.000001 0.000001 0.000001 0.000001 0.000001 0.000001 0.000001 0.000000 0.000000 0.000000 0.000000 0.000000 0.000000 0.000000 0.000000 0.000000 0.000000 0.000000 0.000000 0.000000 0.000000 0.000000 0.000000 0.000000 0.000000 0.000000 0.000000 0.000000 0.000000 0.000000 0.000000 0.000000 0.000000 0.000000 0.000000
2.913326 2.782822 2.661747 2.550112 2.447933 2.355222 2.271993 2.198259 2.130047 2.063563 1.998778 1.935661 1.874182 1.814310 1.756017 1.699272 1.644046 1.590309 1.538033 1.487188 1.437746 1.389679 1.342957 1.297554 1.253440 1.210590 1.168975 1.128569 1.089345 1.051277 1.014339 0.978504 0.943748 0.910045 0.877371 0.845701 0.815011 0.785278 0.756477 0.728586 0.701581 0.675441 0.650144 0.625667 0.601989 0.579090 0.556948 0.535544 0.514857 0.494868 0.475558 0.456907 0.438898 0.421512 0.404731 0.388538 0.372916 0.357849 0.343319 0.329311 0.315809 0.302797 0.290262 0.278188 0.266560 0.255365 0.244590 0.234220 0.224243 0.214647 0.205418 0.196545 0.188016 0.179819 0.171944 0.164379 0.157114 0.150139 0.143443 0.137018 0.130853 0.124938 0.119267 0.113829 0.108616 0.103620 0.098833 0.094248 0.089856 0.085652 0.081627 0.077774 0.074089 0.070563 0.067190 0.063966 0.060884 0.057938 0.055123 0.052434 0.049866 0.047414 0.045073 0.042839 0.040707 0.038673 0.036734 0.034884 0.033121 0.031440 0.029839 0.028313 0.026860 0.025476 0.024159 0.022905 0.021711 0.020576 0.019496 0.018469 0.017493 0.016565 0.015683 0.014845 0.014049 0.013293 0.012575 0.011894 0.011247 0.010634 0.010052 0.009500 0.008976 0.008480 0.008009 0.007563 0.007141 0.006741 0.006362 0.006003 0.005664 0.005342 0.005038 0.004751 0.004479 0.004221 0.003978 0.003748 0.003531 0.003326 0.003132 0.002948 0.002775 0.002612 0.002458 0.002313 0.002175 0.002046 0.001924 0.001809 0.001700 0.001598 0.001502 0.001411 0.001325 0.001245 0.001169 0.001097 0.001030 0.000967 0.000907 0.000851 0.000799 0.000749 0.000702 0.000659 0.000618 0.000579 0.000543 0.000508 0.000476 0.000446 0.000418 0.000391 0.000366 0.000343 0.000321 0.000301 0.000281 0.000263 0.000246 0.000230 0.000215 0.000201 0.000188 0.000176 0.000165 0.000154 0.000144 0.000134 0.000126 0.000117 0.000110 0.000102 0.000095 0.000089 0.000083 0.000078 0.000073 0.000068 0.000063 0.000059 0.000055 0.000051 0.000048 0.000045 0.000042 0.000039 0.000036 0.000034 0.000031 0.000029 0.000027 0.000025 0.000024 0.000022 0.000021 0.000019 0.000018 0.000017 0.000015 0.000014 0.000013 0.000012 0.000012 0.000011 0.000010 0.000009 0.000009 0.000008 0.000008 0.000007 0.000007 0.000006 0.000006 0.000005 0.000005 0.000005 0.000004 0.000004 0.000004 0.000003 0.000003 0.000003 0.000003 0.000003 0.000002 0.000002 0.000002 0.000002 0.000002 0.000002 0.000002 0.000001 0.000001 0.000001 0.000001 0.000001 0.000001 0.000001 0.000001 0.000001 0.000001 0.000001 0.000001 0.000001 0.000001 0.000001 0.000000 0.000000 0.000000 0.000000 0.000000 0.000000 0.000000 0.000000 0.000000 0.000000 0.000000 0.000000 0.000000 0.000000 0.000000 0.000000 0.000000 0.000000 0.000000 0.000000 0.000000 0.000000 0.000000 0.000000 0.000000 0.000000 0.000000 0.000000
2.971651 2.836790 2.711403 2.595504 2.489105 2.392220 2.304864 2.227049 2.157345 2.089987 2.024349 1.960401 1.898111 1.837450 1.778387 1.720892 1.664936 1.610488 1.557521 1.506003 1.455906 1.407202 1.359862 1.313857 1.269160 1.225742 1.183577 1.142636 1.102893 1.064322 1.026895 0.990587 0.955372 0.921225 0.888120 0.856034 0.824940 0.794816 0.765637 0.737380 0.710022 0.683541 0.657913 0.633117 0.609131 0.585935 0.563506 0.541825 0.520871 0.500625 0.481066 0.462177 0.443937 0.426329 0.409335 0.392937 0.377117 0.361860 0.347147 0.332963 0.319292 0.306119 0.293428 0.281204 0.269434 0.258102 0.247194 0.236698 0.226601 0.216888 0.207548 0.198569 0.189938 0.181644 0.173676 0.166023 0.158673 0.151617 0.144844 0.138344 0.132108 0.126127 0.120391 0.114892 0.109621 0.104570 0.099730 0.095095 0.090656 0.086406 0.082337 0.078444 0.074720 0.071157 0.067750 0.064492 0.061378 0.058403 0.055560 0.052844 0.050251 0.047774 0.045411 0.043155 0.041003 0.038950 0.036993 0.035126 0.033347 0.031651 0.030035 0.028496 0.027030 0.025635 0.024306 0.023042 0.021839 0.020694 0.019606 0.018571 0.017587 0.016651 0.015763 0.014919 0.014117 0.013355 0.012633 0.011947 0.011295 0.010678 0.010092 0.009536 0.009009 0.008510 0.008037 0.007588 0.007164 0.006761 0.006380 0.006020 0.005678 0.005355 0.005050 0.004761 0.004487 0.004229 0.003985 0.003754 0.003535 0.003329 0.003135 0.002951 0.002777 0.002614 0.002459 0.002313 0.002175 0.002046 0.001923 0.001808 0.001699 0.001597 0.001500 0.001409 0.001323 0.001243 0.001167 0.001095 0.001028 0.000965 0.000905 0.000849 0.000796 0.000747 0.000700 0.000657 0.000615 0.000577 0.000540 0.000506 0.000474 0.000444 0.000416 0.000390 0.000365 0.000341 0.000319 0.000299 0.000280 0.000262 0.000245 0.000229 0.000214 0.000200 0.000187 0.000175 0.000163 0.000153 0.000143 0.000133 0.000124 0.000116 0.000109 0.000101 0.000095 0.000088 0.000082 0.000077 0.000072 0.000067 0.000063 0.000058 0.000054 0.000051 0.000047 0.000044 0.000041 0.000038 0.000036 0.000033 0.000031 0.000029 0.000027 0.000025 0.000023 0.000022 0.000020 0.000019 0.000018 0.000016 0.000015 0.000014 0.000013 0.000012 0.000011 0.000011 0.000010 0.000009 0.000009 0.000008 0.000007 0.000007 0.000006 0.000006 0.000006 0.000005 0.000005 0.000004 0.000004 0.000004 0.000004 0.000003 0.000003 0.000003 0.000003 0.000002 0.000002 0.000002 0.000002 0.000002 0.000002 0.000002 0.000001 0.000001 0.000001 0.000001 0.000001 0.000001 0.000001 0.000001 0.000001 0.000001 0.000001 0.000001 0.000001 0.000001 0.000001 0.000000 0.000000 0.000000 0.000000 0.000000 0.000000 0.000000 0.000000 0.000000 0.000000 0.000000 0.000000 0.000000 0.000000 0.000000 0.000000 0.000000 0.000000 0.000000 0.000000 0.000000 0.000000 0.000000 0.000000 0.000000 0.000000 0.000000 0.000000 0.000000
3.032008 2.892748 2.763006 2.642799 2.532138 2.431038 2.339513 2.257575 2.185078 2.116832 2.050329 1.985536 1.922422 1.860959 1.801114 1.742858 1.686160 1.630991 1.577320 1.525119 1.474357 1.425007 1.377038 1.330422 1.285131 1.241137 1.198412 1.156928 1.116658 1.077575 1.039652 1.002863 0.967182 0.932583 0.899041 0.866530 0.835027 0.804505 0.774942 0.746314 0.718597 0.691768 0.665805 0.640685 0.616387 0.592888 0.570168 0.548205 0.526980 0.506472 0.486661 0.467529 0.449055 0.431222 0.414011 0.397404 0.381383 0.365932 0.351034 0.336672 0.322829 0.309491 0.296642 0.284267 0.272351 0.260879 0.249838 0.239213 0.228993 0.219163 0.209710 0.200623 0.191889 0.183496 0.175434 0.167690 0.160254 0.153115 0.146264 0.139689 0.133382 0.127332 0.121532 0.115970 0.110640 0.105533 0.100640 0.095954 0.091466 0.087170 0.083058 0.079123 0.075359 0.071759 0.068316 0.065025 0.061879 0.058873 0.056002 0.053259 0.050640 0.048139 0.045753 0.043475 0.041303 0.039231 0.037255 0.035371 0.033575 0.031864 0.030234 0.028681 0.027203 0.025795 0.024455 0.023180 0.021967 0.020813 0.019716 0.018673 0.017681 0.016739 0.015844 0.014993 0.014185 0.013418 0.012690 0.012000 0.011344 0.010722 0.010132 0.009573 0.009043 0.008541 0.008064 0.007613 0.007186 0.006782 0.006399 0.006036 0.005693 0.005368 0.005061 0.004771 0.004496 0.004236 0.003991 0.003759 0.003540 0.003333 0.003138 0.002953 0.002779 0.002615 0.002460 0.002313 0.002175 0.002045 0.001923 0.001807 0.001698 0.001595 0.001499 0.001407 0.001322 0.001241 0.001165 0.001093 0.001026 0.000963 0.000903 0.000847 0.000794 0.000745 0.000698 0.000654 0.000613 0.000575 0.000538 0.000504 0.000472 0.000442 0.000414 0.000388 0.000363 0.000340 0.000318 0.000297 0.000278 0.000260 0.000243 0.000227 0.000213 0.000199 0.000186 0.000174 0.000162 0.000152 0.000142 0.000132 0.000123 0.000115 0.000108 0.000100 0.000094 0.000088 0.000082 0.000076 0.000071 0.000066 0.000062 0.000058 0.000054 0.000050 0.000047 0.000044 0.000041 0.000038 0.000035 0.000033 0.000031 0.000029 0.000027 0.000025 0.000023 0.000021 0.000020 0.000019 0.000017 0.000016 0.000015 0.000014 0.000013 0.000012 0.000011 0.000010 0.000010 0.000009 0.000008 0.000008 0.000007 0.000007 0.000006 0.000006 0.000005 0.000005 0.000005 0.000004 0.000004 0.000004 0.000004 0.000003 0.000003 0.000003 0.000003 0.000002 0.000002 0.000002 0.000002 0.000002 0.000002 0.000002 0.000001 0.000001 0.000001 0.000001 0.000001 0.000001 0.000001 0.000001 0.000001 0.000001 0.000001 0.000001 0.000001 0.000001 0.000001 0.000000 0.000000 0.000000 0.000000 0.000000 0.000000 0.000000 0.000000 0.000000 0.000000 0.000000 0.000000 0.000000 0.000000 0.000000 0.000000 0.000000 0.000000 0.000000 0.000000 0.000000 0.000000 0.000000 0.000000 0.000000 0.000000 0.000000 0.000000 0.000000
3.094428 2.950723 2.816585 2.692026 2.577060 2.471702 2.375966 2.289865 2.213413 2.144106 2.076723 2.011072 1.947123 1.884844 1.824206 1.765176 1.707725 1.651822 1.597438 1.544542 1.493105 1.443097 1.394490 1.347253 1.301359 1.256779 1.213485 1.171449 1.130643 1.091040 1.052614 1.015336 0.979181 0.944123 0.910136 0.877195 0.845274 0.814350 0.784396 0.755390 0.727308 0.700127 0.673822 0.648373 0.623757 0.599951 0.576934 0.554686 0.533185 0.512411 0.492344 0.472964 0.454253 0.436190 0.418759 0.401940 0.385715 0.370068 0.354981 0.340437 0.326421 0.312915 0.299906 0.287376 0.275312 0.263698 0.252521 0.241766 0.231421 0.221471 0.211904 0.202707 0.193868 0.185375 0.177217 0.169381 0.161858 0.154636 0.147704 0.141054 0.134674 0.128555 0.122688 0.117064 0.111674 0.106509 0.101562 0.096824 0.092287 0.087944 0.083788 0.079811 0.076007 0.072369 0.068890 0.065565 0.062387 0.059350 0.056449 0.053679 0.051034 0.048509 0.046099 0.043799 0.041606 0.039514 0.037520 0.035618 0.033806 0.032080 0.030435 0.028869 0.027377 0.025957 0.024606 0.023320 0.022097 0.020934 0.019828 0.018776 0.017777 0.016827 0.015925 0.015068 0.014254 0.013482 0.012749 0.012053 0.011393 0.010767 0.010173 0.009611 0.009077 0.008571 0.008092 0.007639 0.007209 0.006802 0.006417 0.006052 0.005707 0.005381 0.005073 0.004781 0.004505 0.004244 0.003998 0.003765 0.003545 0.003337 0.003141 0.002956 0.002781 0.002616 0.002461 0.002314 0.002175 0.002045 0.001922 0.001806 0.001697 0.001594 0.001497 0.001406 0.001320 0.001239 0.001163 0.001091 0.001024 0.000960 0.000901 0.000845 0.000792 0.000742 0.000696 0.000652 0.000611 0.000572 0.000536 0.000502 0.000470 0.000440 0.000412 0.000386 0.000361 0.000338 0.000316 0.000296 0.000276 0.000258 0.000242 0.000226 0.000211 0.000197 0.000184 0.000172 0.000161 0.000150 0.000140 0.000131 0.000122 0.000114 0.000107 0.000100 0.000093 0.000087 0.000081 0.000075 0.000070 0.000066 0.000061 0.000057 0.000053 0.000050 0.000046 0.000043 0.000040 0.000037 0.000035 0.000032 0.000030 0.000028 0.000026 0.000024 0.000023 0.000021 0.000020 0.000018 0.000017 0.000016 0.000015 0.000014 0.000013 0.000012 0.000011 0.000010 0.000010 0.000009 0.000008 0.000008 0.000007 0.000007 0.000006 0.000006 0.000005 0.000005 0.000005 0.000004 0.000004 0.000004 0.000003 0.000003 0.000003 0.000003 0.000003 0.000002 0.000002 0.000002 0.000002 0.000002 0.000002 0.000002 0.000001 0.000001 0.000001 0.000001 0.000001 0.000001 0.000001 0.000001 0.000001 0.000001 0.000001 0.000001 0.000001 0.000001 0.000001 0.000000 0.000000 0.000000 0.000000 0.000000 0.000000 0.000000 0.000000 0.000000 0.000000 0.000000 0.000000 0.000000 0.000000 0.000000 0.000000 0.000000 0.000000 0.000000 0.000000 0.000000 0.000000 0.000000 0.000000 0.000000 0.000000 0.000000 0.000000 0.000000
3.158940 3.010748 2.872167 2.743214 2.623900 2.514242 2.414251 2.323944 2.243333 2.171817 2.103541 2.037019 1.972220 1.909114 1.847668 1.787853 1.729636 1.672989 1.617879 1.564278 1.512154 1.461479 1.412223 1.364356 1.317849 1.272674 1.228802 1.186204 1.144854 1.104723 1.065784 1.028009 0.991373 0.955849 0.921410 0.888031 0.855686 0.824352 0.794002 0.764612 0.736159 0.708618 0.681968 0.656183 0.631243 0.607125 0.583808 0.561269 0.539487 0.518443 0.498116 0.478485 0.459532 0.441237 0.423581 0.406546 0.390114 0.374267 0.358988 0.344261 0.330067 0.316392 0.303219 0.290532 0.278318 0.266560 0.255245 0.244358 0.233885 0.223814 0.214130 0.204822 0.195877 0.187282 0.179026 0.171098 0.163485 0.156178 0.149166 0.142438 0.135984 0.129795 0.123861 0.118173 0.112722 0.107499 0.102497 0.097706 0.093120 0.088730 0.084528 0.080509 0.076664 0.072987 0.069472 0.066111 0.062901 0.059833 0.056902 0.054104 0.051433 0.048883 0.046449 0.044128 0.041913 0.039801 0.037788 0.035869 0.034040 0.032298 0.030639 0.029058 0.027554 0.026121 0.024759 0.023462 0.022229 0.021056 0.019941 0.018881 0.017873 0.016916 0.016007 0.015144 0.014324 0.013546 0.012808 0.012107 0.011443 0.010812 0.010215 0.009648 0.009111 0.008603 0.008121 0.007664 0.007232 0.006823 0.006435 0.006069 0.005722 0.005394 0.005084 0.004791 0.004514 0.004252 0.004004 0.003770 0.003549 0.003341 0.003144 0.002958 0.002783 0.002617 0.002461 0.002314 0.002175 0.002045 0.001921 0.001805 0.001696 0.001593 0.001495 0.001404 0.001318 0.001237 0.001161 0.001089 0.001022 0.000958 0.000898 0.000842 0.000790 0.000740 0.000694 0.000650 0.000609 0.000570 0.000534 0.000500 0.000468 0.000438 0.000410 0.000384 0.000359 0.000336 0.000314 0.000294 0.000275 0.000257 0.000240 0.000224 0.000210 0.000196 0.000183 0.000171 0.000160 0.000149 0.000139 0.000130 0.000121 0.000113 0.000106 0.000099 0.000092 0.000086 0.000080 0.000075 0.000070 0.000065 0.000061 0.000056 0.000053 0.000049 0.000046 0.000043 0.000040 0.000037 0.000034 0.000032 0.000030 0.000028 0.000026 0.000024 0.000022 0.000021 0.000019 0.000018 0.000017 0.000016 0.000015 0.000014 0.000013 0.000012 0.000011 0.000010 0.000009 0.000009 0.000008 0.000008 0.000007 0.000007 0.000006 0.000006 0.000005 0.000005 0.000005 0.000004 0.000004 0.000004 0.000003 0.000003 0.000003 0.000003 0.000003 0.000002 0.000002 0.000002 0.000002 0.000002 0.000002 0.000001 0.000001 0.000001 0.000001 0.000001 0.000001 0.000001 0.000001 0.000001 0.000001 0.000001 0.000001 0.000001 0.000001 0.000001 0.000000 0.000000 0.000000 0.000000 0.000000 0.000000 0.000000 0.000000 0.000000 0.000000 0.000000 0.000000 0.000000 0.000000 0.000000 0.000000 0.000000 0.000000 0.000000 0.000000 0.000000 0.000000 0.000000 0.000000 0.000000 0.000000 0.000000 0.000000 0.000000 0.000000
3.225576 3.072850 2.929784 2.796391 2.672687 2.558684 2.454397 2.359840 2.275027 2.199973 2.130789 2.063382 1.997721 1.933774 1.871509 1.810895 1.751901 1.694497 1.638651 1.584332 1.531511 1.480158 1.430242 1.381734 1.334605 1.288825 1.244365 1.201198 1.159294 1.118626 1.079166 1.040887 1.003762 0.967763 0.932865 0.899041 0.866266 0.834514 0.803761 0.773981 0.745151 0.717246 0.690243 0.664118 0.638850 0.614414 0.590790 0.567956 0.545890 0.524571 0.503979 0.484093 0.464894 0.446362 0.428478 0.411224 0.394582 0.378532 0.363058 0.348143 0.333770 0.319921 0.306582 0.293737 0.281370 0.269465 0.258010 0.246988 0.236387 0.226192 0.216390 0.206969 0.197915 0.189217 0.180862 0.172839 0.165136 0.157743 0.150648 0.143841 0.137313 0.131052 0.125050 0.119297 0.113785 0.108503 0.103445 0.098601 0.093964 0.089525 0.085278 0.081215 0.077329 0.073613 0.070061 0.066666 0.063421 0.060322 0.057362 0.054535 0.051837 0.049261 0.046804 0.044460 0.042224 0.040092 0.038060 0.036123 0.034277 0.032519 0.030844 0.029250 0.027732 0.026287 0.024913 0.023605 0.022361 0.021179 0.020055 0.018986 0.017971 0.017007 0.016090 0.015221 0.014395 0.013611 0.012867 0.012162 0.011493 0.010858 0.010257 0.009686 0.009146 0.008634 0.008149 0.007690 0.007255 0.006844 0.006454 0.006086 0.005737 0.005407 0.005096 0.004801 0.004523 0.004259 0.004011 0.003776 0.003554 0.003345 0.003147 0.002961 0.002785 0.002619 0.002462 0.002315 0.002175 0.002044 0.001921 0.001804 0.001695 0.001591 0.001494 0.001402 0.001316 0.001235 0.001159 0.001087 0.001019 0.000956 0.000896 0.000840 0.000787 0.000738 0.000691 0.000648 0.000607 0.000568 0.000532 0.000498 0.000466 0.000436 0.000408 0.000382 0.000357 0.000334 0.000313 0.000292 0.000273 0.000255 0.000239 0.000223 0.000208 0.000195 0.000182 0.000170 0.000159 0.000148 0.000138 0.000129 0.000120 0.000112 0.000105 0.000098 0.000091 0.000085 0.000079 0.000074 0.000069 0.000064 0.000060 0.000056 0.000052 0.000049 0.000045 0.000042 0.000039 0.000037 0.000034 0.000032 0.000030 0.000027 0.000026 0.000024 0.000022 0.000021 0.000019 0.000018 0.000017 0.000015 0.000014 0.000013 0.000012 0.000012 0.000011 0.000010 0.000009 0.000009 0.000008 0.000007 0.000007 0.000006 0.000006 0.000006 0.000005 0.000005 0.000004 0.000004 0.000004 0.000004 0.000003 0.000003 0.000003 0.000003 0.000002 0.000002 0.000002 0.000002 0.000002 0.000002 0.000002 0.000001 0.000001 0.000001 0.000001 0.000001 0.000001 0.000001 0.000001 0.000001 0.000001 0.000001 0.000001 0.000001 0.000001 0.000001 0.000000 0.000000 0.000000 0.000000 0.000000 0.000000 0.000000 0.000000 0.000000 0.000000 0.000000 0.000000 0.000000 0.000000 0.000000 0.000000 0.000000 0.000000 0.000000 0.000000 0.000000 0.000000 0.000000 0.000000 0.000000 0.000000 0.000000 0.000000 0.000000 0.000000
3.294366 3.137062 2.989465 2.851589 2.723448 2.605057 2.496430 2.397580 2.308524 2.229273 2.158476 2.090171 2.023634 1.958832 1.895735 1.834310 1.774527 1.716353 1.659758 1.604711 1.551182 1.499139 1.448554 1.399394 1.351632 1.305238 1.260181 1.216435 1.173968 1.132755 1.092766 1.053973 1.016350 0.979870 0.944505 0.910229 0.877016 0.844841 0.813677 0.783501 0.754287 0.726012 0.698651 0.672180 0.646578 0.621820 0.597885 0.574750 0.552394 0.530796 0.509934 0.489789 0.470340 0.451568 0.433453 0.415976 0.399119 0.382863 0.367192 0.352086 0.337530 0.323506 0.309998 0.296991 0.284468 0.272415 0.260817 0.249658 0.238926 0.228605 0.218684 0.209147 0.199984 0.191180 0.182725 0.174606 0.166811 0.159331 0.152152 0.145266 0.138661 0.132328 0.126257 0.120438 0.114862 0.109521 0.104406 0.099508 0.094820 0.090332 0.086039 0.081932 0.078004 0.074248 0.070658 0.067227 0.063949 0.060817 0.057827 0.054972 0.052246 0.049645 0.047163 0.044796 0.042539 0.040386 0.038335 0.036379 0.034517 0.032742 0.031053 0.029444 0.027913 0.026455 0.025069 0.023750 0.022496 0.021303 0.020170 0.019093 0.018070 0.017098 0.016175 0.015298 0.014466 0.013677 0.012928 0.012217 0.011543 0.010904 0.010299 0.009725 0.009181 0.008666 0.008178 0.007716 0.007279 0.006865 0.006473 0.006103 0.005752 0.005421 0.005107 0.004811 0.004532 0.004267 0.004017 0.003782 0.003559 0.003349 0.003150 0.002963 0.002787 0.002620 0.002463 0.002315 0.002175 0.002044 0.001920 0.001803 0.001693 0.001590 0.001492 0.001401 0.001314 0.001233 0.001157 0.001085 0.001017 0.000954 0.000894 0.000838 0.000785 0.000736 0.000689 0.000645 0.000604 0.000566 0.000530 0.000496 0.000464 0.000434 0.000406 0.000380 0.000355 0.000332 0.000311 0.000291 0.000272 0.000254 0.000237 0.000222 0.000207 0.000193 0.000181 0.000169 0.000157 0.000147 0.000137 0.000128 0.000119 0.000111 0.000104 0.000097 0.000090 0.000084 0.000079 0.000073 0.000068 0.000064 0.000059 0.000055 0.000052 0.000048 0.000045 0.000042 0.000039 0.000036 0.000034 0.000031 0.000029 0.000027 0.000025 0.000023 0.000022 0.000020 0.000019 0.000018 0.000016 0.000015 0.000014 0.000013 0.000012 0.000011 0.000011 0.000010 0.000009 0.000008 0.000008 0.000007 0.000007 0.000006 0.000006 0.000005 0.000005 0.000005 0.000004 0.000004 0.000004 0.000004 0.000003 0.000003 0.000003 0.000003 0.000002 0.000002 0.000002 0.000002 0.000002 0.000002 0.000002 0.000001 0.000001 0.000001 0.000001 0.000001 0.000001 0.000001 0.000001 0.000001 0.000001 0.000001 0.000001 0.000001 0.000001 0.000001 0.000000 0.000000 0.000000 0.000000 0.000000 0.000000 0.000000 0.000000 0.000000 0.000000 0.000000 0.000000 0.000000 0.000000 0.000000 0.000000 0.000000 0.000000 0.000000 0.000000 0.000000 0.000000 0.000000 0.000000 0.000000 0.000000 0.000000 0.000000 0.000000 0.000000
3.365342 3.203414 3.051241 2.908836 2.776215 2.653391 2.540379 2.437194 2.343849 2.260360 2.186610 2.117392 2.049965 1.984296 1.920353 1.858104 1.797519 1.738564 1.681208 1.625421 1.571172 1.518429 1.467162 1.417342 1.368936 1.321917 1.276254 1.231918 1.188881 1.147113 1.106586 1.067272 1.029143 0.992173 0.956333 0.921598 0.887940 0.855334 0.823754 0.793175 0.763571 0.734919 0.707194 0.680372 0.654429 0.629344 0.605092 0.581652 0.559002 0.537120 0.515985 0.495576 0.475873 0.456856 0.438506 0.420803 0.403728 0.387262 0.371389 0.356090 0.341348 0.327145 0.313467 0.300295 0.287614 0.275410 0.263667 0.252369 0.241504 0.231056 0.221012 0.211359 0.202083 0.193173 0.184616 0.176399 0.168511 0.160941 0.153678 0.146711 0.140028 0.133622 0.127480 0.121595 0.115955 0.110554 0.105381 0.100428 0.095687 0.091150 0.086810 0.082658 0.078687 0.074891 0.071263 0.067796 0.064483 0.061319 0.058298 0.055414 0.052661 0.050033 0.047527 0.045137 0.042857 0.040684 0.038613 0.036639 0.034759 0.032968 0.031263 0.029640 0.028095 0.026625 0.025227 0.023896 0.022632 0.021429 0.020287 0.019201 0.018169 0.017190 0.016259 0.015376 0.014538 0.013743 0.012988 0.012273 0.011594 0.010951 0.010341 0.009763 0.009216 0.008698 0.008207 0.007742 0.007302 0.006886 0.006492 0.006120 0.005767 0.005434 0.005119 0.004822 0.004541 0.004275 0.004024 0.003787 0.003564 0.003353 0.003154 0.002966 0.002789 0.002621 0.002464 0.002315 0.002175 0.002044 0.001919 0.001802 0.001692 0.001588 0.001491 0.001399 0.001312 0.001231 0.001155 0.001083 0.001015 0.000952 0.000892 0.000836 0.000783 0.000733 0.000687 0.000643 0.000602 0.000564 0.000528 0.000494 0.000462 0.000432 0.000404 0.000378 0.000354 0.000331 0.000309 0.000289 0.000270 0.000252 0.000236 0.000220 0.000206 0.000192 0.000179 0.000167 0.000156 0.000146 0.000136 0.000127 0.000118 0.000110 0.000103 0.000096 0.000090 0.000084 0.000078 0.000073 0.000068 0.000063 0.000059 0.000055 0.000051 0.000047 0.000044 0.000041 0.000038 0.000036 0.000033 0.000031 0.000029 0.000027 0.000025 0.000023 0.000022 0.000020 0.000019 0.000017 0.000016 0.000015 0.000014 0.000013 0.000012 0.000011 0.000010 0.000010 0.000009 0.000008 0.000008 0.000007 0.000007 0.000006 0.000006 0.000005 0.000005 0.000005 0.000004 0.000004 0.000004 0.000003 0.000003 0.000003 0.000003 0.000003 0.000002 0.000002 0.000002 0.000002 0.000002 0.000002 0.000002 0.000001 0.000001 0.000001 0.000001 0.000001 0.000001 0.000001 0.000001 0.000001 0.000001 0.000001 0.000001 0.000001 0.000001 0.000000 0.000000 0.000000 0.000000 0.000000 0.000000 0.000000 0.000000 0.000000 0.000000 0.000000 0.000000 0.000000 0.000000 0.000000 0.000000 0.000000 0.000000 0.000000 0.000000 0.000000 0.000000 0.000000 0.000000 0.000000 0.000000 0.000000 0.000000 0.000000 0.000000 0.000000
3.438536 3.271938 3.115143 2.968164 2.831016 2.703715 2.586274 2.478708 2.381032 2.293260 2.215406 2.145055 2.076723 2.010173 1.945371 1.882285 1.820884 1.761135 1.703007 1.646469 1.591487 1.538033 1.486075 1.435581 1.386522 1.338868 1.292589 1.247655 1.204036 1.161705 1.120631 1.080787 1.042145 1.004676 0.968354 0.933151 0.899041 0.865997 0.833994 0.803005 0.773005 0.743970 0.715875 0.688695 0.662407 0.636988 0.612415 0.588665 0.565715 0.543545 0.522131 0.501455 0.481494 0.462228 0.443639 0.425705 0.408409 0.391731 0.375653 0.360157 0.345226 0.330842 0.316989 0.303650 0.290809 0.278451 0.266560 0.255121 0.244120 0.233543 0.223375 0.213603 0.204215 0.195196 0.186535 0.178219 0.170236 0.162576 0.155226 0.148176 0.141416 0.134934 0.128721 0.122768 0.117064 0.111601 0.106369 0.101361 0.096567 0.091979 0.087591 0.083394 0.079380 0.075543 0.071876 0.068372 0.065025 0.061828 0.058775 0.055861 0.053080 0.050427 0.047896 0.045482 0.043180 0.040986 0.038895 0.036902 0.035005 0.033197 0.031477 0.029839 0.028280 0.026797 0.025386 0.024045 0.022769 0.021557 0.020405 0.019310 0.018270 0.017283 0.016345 0.015455 0.014611 0.013810 0.013050 0.012329 0.011646 0.010998 0.010384 0.009803 0.009252 0.008730 0.008236 0.007768 0.007326 0.006907 0.006511 0.006137 0.005782 0.005448 0.005131 0.004832 0.004550 0.004283 0.004031 0.003793 0.003569 0.003357 0.003157 0.002968 0.002790 0.002623 0.002465 0.002316 0.002175 0.002043 0.001919 0.001801 0.001691 0.001587 0.001489 0.001397 0.001311 0.001229 0.001153 0.001081 0.001013 0.000949 0.000890 0.000833 0.000781 0.000731 0.000685 0.000641 0.000600 0.000562 0.000526 0.000492 0.000460 0.000430 0.000402 0.000376 0.000352 0.000329 0.000307 0.000287 0.000268 0.000251 0.000234 0.000219 0.000204 0.000191 0.000178 0.000166 0.000155 0.000145 0.000135 0.000126 0.000117 0.000110 0.000102 0.000095 0.000089 0.000083 0.000077 0.000072 0.000067 0.000062 0.000058 0.000054 0.000050 0.000047 0.000044 0.000041 0.000038 0.000035 0.000033 0.000031 0.000028 0.000026 0.000025 0.000023 0.000021 0.000020 0.000018 0.000017 0.000016 0.000015 0.000014 0.000013 0.000012 0.000011 0.000010 0.000010 0.000009 0.000008 0.000008 0.000007 0.000007 0.000006 0.000006 0.000005 0.000005 0.000005 0.000004 0.000004 0.000004 0.000003 0.000003 0.000003 0.000003 0.000003 0.000002 0.000002 0.000002 0.000002 0.000002 0.000002 0.000001 0.000001 0.000001 0.000001 0.000001 0.000001 0.000001 0.000001 0.000001 0.000001 0.000001 0.000001 0.000001 0.000001 0.000001 0.000000 0.000000 0.000000 0.000000 0.000000 0.000000 0.000000 0.000000 0.000000 0.000000 0.000000 0.000000 0.000000 0.000000 0.000000 0.000000 0.000000 0.000000 0.000000 0.000000 0.000000 0.000000 0.000000 0.000000 0.000000 0.000000 0.000000 0.000000 0.000000 0.000000 0.000000
3.513980 3.342666 3.181202 3.029602 2.887883 2.756059 2.634144 2.522153 2.420101 2.328002 2.245870 2.173166 2.103916 2.036470 1.970796 1.906860 1.844631 1.784075 1.725162 1.667859 1.612135 1.557957 1.505296 1.454119 1.404396 1.356097 1.309191 1.263648 1.219439 1.176535 1.134905 1.094522 1.055358 1.017383 0.980570 0.944893 0.910323 0.876834 0.844400 0.812994 0.782592 0.753167 0.724696 0.697153 0.670514 0.644756 0.619856 0.595790 0.572536 0.550072 0.528376 0.507427 0.487204 0.467686 0.448853 0.430685 0.413164 0.396269 0.379983 0.364287 0.349164 0.334596 0.320566 0.307057 0.294053 0.281539 0.269498 0.257916 0.246777 0.236068 0.225774 0.215882 0.206378 0.197249 0.188482 0.180065 0.171987 0.164235 0.156797 0.149664 0.142823 0.136266 0.129981 0.123958 0.118188 0.112663 0.107371 0.102306 0.097459 0.092820 0.088383 0.084140 0.080083 0.076204 0.072498 0.068956 0.065574 0.062343 0.059259 0.056315 0.053506 0.050825 0.048269 0.045831 0.043506 0.041291 0.039180 0.037169 0.035253 0.033429 0.031692 0.030040 0.028467 0.026971 0.025548 0.024194 0.022908 0.021685 0.020524 0.019420 0.018372 0.017377 0.016432 0.015535 0.014684 0.013877 0.013112 0.012386 0.011698 0.011046 0.010428 0.009842 0.009288 0.008763 0.008266 0.007795 0.007350 0.006929 0.006531 0.006154 0.005798 0.005461 0.005143 0.004843 0.004559 0.004291 0.004038 0.003799 0.003573 0.003361 0.003160 0.002971 0.002792 0.002624 0.002466 0.002316 0.002175 0.002043 0.001918 0.001800 0.001690 0.001586 0.001488 0.001395 0.001309 0.001227 0.001150 0.001078 0.001011 0.000947 0.000887 0.000831 0.000778 0.000729 0.000682 0.000639 0.000598 0.000559 0.000523 0.000490 0.000458 0.000428 0.000400 0.000374 0.000350 0.000327 0.000306 0.000285 0.000267 0.000249 0.000233 0.000217 0.000203 0.000189 0.000177 0.000165 0.000154 0.000144 0.000134 0.000125 0.000116 0.000109 0.000101 0.000094 0.000088 0.000082 0.000076 0.000071 0.000066 0.000062 0.000057 0.000054 0.000050 0.000046 0.000043 0.000040 0.000037 0.000035 0.000032 0.000030 0.000028 0.000026 0.000024 0.000023 0.000021 0.000020 0.000018 0.000017 0.000016 0.000015 0.000014 0.000013 0.000012 0.000011 0.000010 0.000009 0.000009 0.000008 0.000008 0.000007 0.000006 0.000006 0.000006 0.000005 0.000005 0.000004 0.000004 0.000004 0.000004 0.000003 0.000003 0.000003 0.000003 0.000002 0.000002 0.000002 0.000002 0.000002 0.000002 0.000002 0.000001 0.000001 0.000001 0.000001 0.000001 0.000001 0.000001 0.000001 0.000001 0.000001 0.000001 0.000001 0.000001 0.000001 0.000001 0.000000 0.000000 0.000000 0.000000 0.000000 0.000000 0.000000 0.000000 0.000000 0.000000 0.000000 0.000000 0.000000 0.000000 0.000000 0.000000 0.000000 0.000000 0.000000 0.000000 0.000000 0.000000 0.000000 0.000000 0.000000 0.000000 0.000000 0.000000 0.000000 0.000000 0.000000
3.591709 3.415630 3.249450 3.093184 2.946847 2.810453 2.684018 2.567557 2.461084 2.364613 2.278161 2.201740 2.131552 2.063197 1.996636 1.931836 1.868765 1.807390 1.747679 1.689600 1.633120 1.578208 1.524831 1.472960 1.422562 1.373607 1.326064 1.279903 1.235094 1.191607 1.149413 1.108483 1.068787 1.030298 0.992987 0.956826 0.921789 0.887847 0.854975 0.823146 0.792335 0.762514 0.733660 0.705748 0.678752 0.652650 0.627417 0.603031 0.579467 0.556705 0.534722 0.513495 0.493005 0.473230 0.454150 0.435744 0.417994 0.400879 0.384382 0.368483 0.353164 0.338409 0.324198 0.310517 0.297348 0.284674 0.272481 0.260753 0.249475 0.238632 0.228210 0.218195 0.208574 0.199332 0.190459 0.181940 0.173763 0.165918 0.158391 0.151173 0.144252 0.137617 0.131258 0.125165 0.119329 0.113739 0.108388 0.103265 0.098363 0.093673 0.089186 0.084896 0.080795 0.076874 0.073128 0.069548 0.066130 0.062865 0.059749 0.056775 0.053936 0.051229 0.048647 0.046184 0.043837 0.041600 0.039469 0.037438 0.035505 0.033663 0.031911 0.030243 0.028656 0.027146 0.025711 0.024346 0.023049 0.021816 0.020644 0.019532 0.018475 0.017472 0.016520 0.015616 0.014759 0.013945 0.013174 0.012443 0.011750 0.011093 0.010471 0.009882 0.009324 0.008795 0.008295 0.007822 0.007374 0.006951 0.006550 0.006171 0.005813 0.005475 0.005155 0.004853 0.004568 0.004299 0.004045 0.003805 0.003578 0.003365 0.003163 0.002973 0.002794 0.002626 0.002466 0.002317 0.002175 0.002043 0.001917 0.001799 0.001689 0.001584 0.001486 0.001394 0.001307 0.001225 0.001148 0.001076 0.001009 0.000945 0.000885 0.000829 0.000776 0.000727 0.000680 0.000637 0.000596 0.000557 0.000521 0.000488 0.000456 0.000426 0.000398 0.000372 0.000348 0.000325 0.000304 0.000284 0.000265 0.000248 0.000231 0.000216 0.000201 0.000188 0.000175 0.000164 0.000153 0.000142 0.000133 0.000124 0.000115 0.000108 0.000100 0.000093 0.000087 0.000081 0.000076 0.000070 0.000066 0.000061 0.000057 0.000053 0.000049 0.000046 0.000043 0.000040 0.000037 0.000034 0.000032 0.000030 0.000028 0.000026 0.000024 0.000022 0.000021 0.000019 0.000018 0.000017 0.000015 0.000014 0.000013 0.000012 0.000012 0.000011 0.000010 0.000009 0.000009 0.000008 0.000007 0.000007 0.000006 0.000006 0.000005 0.000005 0.000005 0.000004 0.000004 0.000004 0.000003 0.000003 0.000003 0.000003 0.000003 0.000002 0.000002 0.000002 0.000002 0.000002 0.000002 0.000002 0.000001 0.000001 0.000001 0.000001 0.000001 0.000001 0.000001 0.000001 0.000001 0.000001 0.000001 0.000001 0.000001 0.000001 0.000000 0.000000 0.000000 0.000000 0.000000 0.000000 0.000000 0.000000 0.000000 0.000000 0.000000 0.000000 0.000000 0.000000 0.000000 0.000000 0.000000 0.000000 0.000000 0.000000 0.000000 0.000000 0.000000 0.000000 0.000000 0.000000 0.000000 0.000000 0.000000 0.000000 0.000000 0.000000
3.671755 3.490864 3.319921 3.158940 3.007938 2.866929 2.735928 2.614951 2.504011 2.403124 2.312305 2.231568 2.159639 2.090360 2.022898 1.957221 1.893295 1.831087 1.770566 1.711697 1.654449 1.598790 1.544688 1.492111 1.441027 1.391405 1.343215 1.296426 1.251007 1.206928 1.164160 1.122672 1.082437 1.043424 1.005606 0.968955 0.933442 0.899041 0.865724 0.833464 0.802236 0.772013 0.742771 0.714482 0.687124 0.660672 0.635101 0.610388 0.586510 0.563445 0.541169 0.519661 0.498900 0.478863 0.459532 0.440884 0.422901 0.405563 0.388850 0.372745 0.357227 0.342281 0.327888 0.314031 0.300693 0.287858 0.275511 0.263634 0.252214 0.241235 0.230683 0.220543 0.210803 0.201448 0.192465 0.183842 0.175566 0.167626 0.160009 0.152704 0.145701 0.138987 0.132554 0.126390 0.120486 0.114832 0.109419 0.104238 0.099280 0.094537 0.090001 0.085663 0.081516 0.077553 0.073766 0.070148 0.066693 0.063395 0.060246 0.057240 0.054373 0.051638 0.049029 0.046543 0.044172 0.041913 0.039761 0.037711 0.035759 0.033901 0.032132 0.030449 0.028847 0.027324 0.025876 0.024499 0.023191 0.021947 0.020766 0.019644 0.018579 0.017568 0.016608 0.015697 0.014834 0.014014 0.013238 0.012501 0.011803 0.011142 0.010515 0.009922 0.009360 0.008829 0.008325 0.007849 0.007399 0.006973 0.006570 0.006189 0.005829 0.005489 0.005167 0.004864 0.004577 0.004307 0.004052 0.003811 0.003583 0.003369 0.003167 0.002976 0.002796 0.002627 0.002467 0.002317 0.002175 0.002042 0.001917 0.001799 0.001687 0.001583 0.001484 0.001392 0.001305 0.001223 0.001146 0.001074 0.001006 0.000943 0.000883 0.000827 0.000774 0.000724 0.000678 0.000634 0.000593 0.000555 0.000519 0.000485 0.000454 0.000424 0.000397 0.000371 0.000346 0.000323 0.000302 0.000282 0.000263 0.000246 0.000230 0.000214 0.000200 0.000187 0.000174 0.000162 0.000151 0.000141 0.000132 0.000123 0.000114 0.000107 0.000099 0.000093 0.000086 0.000080 0.000075 0.000070 0.000065 0.000060 0.000056 0.000052 0.000049 0.000045 0.000042 0.000039 0.000037 0.000034 0.000032 0.000029 0.000027 0.000025 0.000024 0.000022 0.000020 0.000019 0.000018 0.000016 0.000015 0.000014 0.000013 0.000012 0.000011 0.000011 0.000010 0.000009 0.000008 0.000008 0.000007 0.000007 0.000006 0.000006 0.000005 0.000005 0.000005 0.000004 0.000004 0.000004 0.000003 0.000003 0.000003 0.000003 0.000003 0.000002 0.000002 0.000002 0.000002 0.000002 0.000002 0.000001 0.000001 0.000001 0.000001 0.000001 0.000001 0.000001 0.000001 0.000001 0.000001 0.000001 0.000001 0.000001 0.000001 0.000001 0.000000 0.000000 0.000000 0.000000 0.000000 0.000000 0.000000 0.000000 0.000000 0.000000 0.000000 0.000000 0.000000 0.000000 0.000000 0.000000 0.000000 0.000000 0.000000 0.000000 0.000000 0.000000 0.000000 0.000000 0.000000 0.000000 0.000000 0.000000 0.000000 0.000000 0.000000 0.000000
3.754152 3.568401 3.392646 3.226904 3.071189 2.925518 2.789904 2.664364 2.548912 2.443563 2.348332 2.263235 2.188186 2.117968 2.049591 1.983022 1.918227 1.855174 1.793828 1.734158 1.676130 1.619712 1.564872 1.511577 1.459796 1.409497 1.360649 1.313221 1.267181 1.222501 1.179149 1.137095 1.096311 1.056767 1.018434 0.981283 0.945287 0.910418 0.876649 0.843951 0.812300 0.781668 0.752030 0.723360 0.695632 0.668824 0.642909 0.617865 0.593667 0.570293 0.547720 0.525926 0.504889 0.484587 0.465000 0.446106 0.427887 0.410321 0.393390 0.377074 0.361355 0.346215 0.331636 0.317600 0.304091 0.291092 0.278587 0.266560 0.254995 0.243878 0.233194 0.222928 0.213066 0.203595 0.194502 0.185773 0.177397 0.169360 0.161651 0.154258 0.147171 0.140378 0.133869 0.127632 0.121659 0.115940 0.110465 0.105224 0.100210 0.095414 0.090827 0.086441 0.082248 0.078241 0.074413 0.070757 0.067265 0.063931 0.060749 0.057712 0.054815 0.052052 0.049417 0.046905 0.044511 0.042230 0.040057 0.037987 0.036017 0.034141 0.032355 0.030657 0.029041 0.027504 0.026043 0.024654 0.023334 0.022080 0.020889 0.019758 0.018684 0.017665 0.016698 0.015780 0.014909 0.014084 0.013301 0.012560 0.011857 0.011191 0.010560 0.009963 0.009397 0.008862 0.008356 0.007877 0.007423 0.006995 0.006590 0.006207 0.005845 0.005503 0.005180 0.004875 0.004587 0.004315 0.004059 0.003817 0.003588 0.003373 0.003170 0.002979 0.002798 0.002628 0.002468 0.002317 0.002175 0.002042 0.001916 0.001798 0.001686 0.001581 0.001483 0.001390 0.001303 0.001221 0.001144 0.001072 0.001004 0.000940 0.000880 0.000824 0.000772 0.000722 0.000676 0.000632 0.000591 0.000553 0.000517 0.000483 0.000452 0.000422 0.000395 0.000369 0.000344 0.000322 0.000300 0.000280 0.000262 0.000244 0.000228 0.000213 0.000199 0.000185 0.000173 0.000161 0.000150 0.000140 0.000131 0.000122 0.000113 0.000106 0.000098 0.000092 0.000085 0.000080 0.000074 0.000069 0.000064 0.000060 0.000056 0.000052 0.000048 0.000045 0.000042 0.000039 0.000036 0.000034 0.000031 0.000029 0.000027 0.000025 0.000023 0.000022 0.000020 0.000019 0.000017 0.000016 0.000015 0.000014 0.000013 0.000012 0.000011 0.000010 0.000010 0.000009 0.000008 0.000008 0.000007 0.000007 0.000006 0.000006 0.000005 0.000005 0.000005 0.000004 0.000004 0.000004 0.000003 0.000003 0.000003 0.000003 0.000002 0.000002 0.000002 0.000002 0.000002 0.000002 0.000002 0.000001 0.000001 0.000001 0.000001 0.000001 0.000001 0.000001 0.000001 0.000001 0.000001 0.000001 0.000001 0.000001 0.000001 0.000001 0.000000 0.000000 0.000000 0.000000 0.000000 0.000000 0.000000 0.000000 0.000000 0.000000 0.000000 0.000000 0.000000 0.000000 0.000000 0.000000 0.000000 0.000000 0.000000 0.000000 0.000000 0.000000 0.000000 0.000000 0.000000 0.000000 0.000000 0.000000 0.000000 0.000000 0.000000 0.000000
