nCols  305
nRows  28
xllcorner  1390
yllcorner -4735
cellsize  5
nodata_value -9999.00
706.096123 705.474665 704.850632 704.224009 703.594779 702.962928 702.328439 701.691295 701.051482 700.408981 699.763778 699.115854 698.465195 697.811781 697.155598 696.496627 695.834851 695.170252 694.502814 693.832519 693.159348 692.483283 691.804307 691.122402 690.437548 689.749727 689.058921 688.365110 687.668276 686.968399 686.265460 685.559440 684.850319 684.138076 683.422693 682.704149 681.982423 681.257495 680.529345 679.797951 679.063293 678.325350 677.584099 676.839521 676.091592 675.340291 674.585596 673.827485 673.065936 672.300925 671.532429 670.760427 669.984895 669.205809 668.423145 667.636880 666.846991 666.053452 665.256240 664.455329 663.650696 662.842314 662.030159 661.214205 660.394427 659.570799 658.743294 657.911887 657.076550 656.237258 655.393982 654.546696 653.695372 652.839983 651.980500 651.116896 650.249142 649.377208 648.501067 647.620689 646.736045 645.847105 644.953838 644.056216 643.154206 642.247779 641.336903 640.421548 639.501681 638.577271 637.648285 636.714692 635.776458 634.833550 633.885936 632.933581 631.976452 631.014514 630.047734 629.076075 628.099504 627.117984 626.131481 625.139957 624.143377 623.141704 622.134901 621.122930 620.105754 619.083335 618.055634 617.022613 615.984233 614.940454 613.891236 612.836540 611.776324 610.710548 609.639171 608.562152 607.479447 606.391015 605.296814 604.196799 603.090928 601.979156 600.861440 599.737734 598.607993 597.472173 596.330227 595.182108 594.027770 592.867166 591.700248 590.526968 589.347277 588.161127 586.968469 585.769251 584.563425 583.350940 582.131744 580.905785 579.673012 578.433372 577.186812 575.933278 574.672716 573.405073 572.130292 570.848318 569.559096 553.883005 540.051843 530.569442 522.783638 515.988448 509.869100 504.252543 499.031559 494.134324 489.510000 485.121107 480.939135 476.941864 473.111634 469.434194 465.897901 462.493152 459.211969 456.047694 452.994757 450.048492 447.205009 444.461075 441.814038 439.261755 436.802541 434.435123 432.158615 429.972484 427.876539 425.870916 423.956071 422.132777 420.402129 418.765550 417.224806 415.782020 414.439701 413.200772 412.068613 411.047105 410.140696 409.354473 408.694256 408.166717 407.779526 407.541534 407.463016 407.555982 407.834584 408.315670 409.019540 409.971008 411.200950 412.748600 414.665158 417.019707 419.909583 423.480204 427.967694 433.808297 442.019086 457.111371 468.989678 467.082531 465.163186 463.231548 461.287523 459.331016 457.361931 455.380172 453.385643 451.378246 449.357884 447.324460 445.277876 443.218033 441.144833 439.058178 436.957967 434.844103 432.716486 430.575015 428.419592 426.250117 424.066491 421.868612 419.656383 417.429702 415.188471 412.932591 410.661962 408.376486 406.076064 403.760598 401.429991 399.084145 396.722964 394.346351 391.954213 389.546455 387.122982 384.683703 382.228525 379.757360 377.270116 374.766707 372.247046 369.711048 367.158630 364.589710 362.004208 359.402047 356.783152 354.147449 351.494866 348.825337 346.138795 343.435177 340.714424 337.976479 335.221290 332.448807 329.658984 326.851779 324.027156 321.185082 318.325527 315.448469 312.553890 309.641777 306.712124 303.764929 300.800198 297.817942 294.818182 291.800944 288.766261 285.714175 282.644737 279.558007 276.454052 273.332951 270.194792 267.039674 263.867705 260.679008 257.473715 254.251972 251.013938 247.759785 244.489700
709.336110 708.720378 708.102090 707.481229 706.857779 706.231725 705.603051 704.971740 704.337777 703.701145 703.061828 702.419810 701.775072 701.127600 700.477375 699.824381 699.168600 698.510015 697.848609 697.184364 696.517262 695.847285 695.174415 694.498634 693.819923 693.138265 692.453639 691.766028 691.075413 690.381773 689.685091 688.985346 688.282519 687.576591 686.867540 686.155348 685.439994 684.721457 683.999717 683.274753 682.546544 681.815069 681.080306 680.342235 679.600834 678.856080 678.107951 677.356427 676.601483 675.843098 675.081249 674.315912 673.547065 672.774685 671.998747 671.219228 670.436104 669.649351 668.858944 668.064860 667.267073 666.465557 665.660289 664.851243 664.038392 663.221711 662.401174 661.576755 660.748427 659.916164 659.079937 658.239721 657.395488 656.547209 655.694857 654.838405 653.977822 653.113082 652.244153 651.371009 650.493619 649.611953 648.725981 647.835674 646.941000 646.041929 645.138430 644.230472 643.318022 642.401050 641.479522 640.553407 639.622672 638.687283 637.747208 636.802413 635.852863 634.898525 633.939365 632.975346 632.006435 631.032595 630.053791 629.069987 628.081146 627.087232 626.088207 625.084034 624.074676 623.060094 622.040249 621.015103 619.984617 618.948751 617.907466 616.860721 615.808475 614.750688 613.687318 612.618323 611.543662 610.463292 609.377169 608.285252 607.187495 606.083856 604.974289 603.858750 602.737193 601.609573 600.475844 599.335958 598.189870 597.037531 595.878894 594.713911 593.542532 592.364709 591.180393 589.989532 588.792077 587.587976 586.377178 585.159631 583.935283 582.704081 581.465971 580.220899 578.968812 577.709654 576.443370 575.169905 573.889201 550.749818 539.985858 531.612142 524.465988 518.108928 512.318578 506.963684 501.959141 497.246102 492.781932 488.534634 484.479531 480.597174 476.871969 473.291240 469.844573 466.523340 463.320350 460.229588 457.246011 454.365402 451.584244 448.899627 446.309175 443.810983 441.403576 439.085869 436.857138 434.717000 432.665397 430.702586 428.829137 427.045927 425.354150 423.755323 422.251301 420.844297 419.536909 418.332149 417.233488 416.244905 415.370948 414.616818 413.988458 413.492680 413.137315 412.931401 412.885442 413.011718 413.324725 413.841741 414.583629 415.575952 416.850607 418.448284 420.422327 422.845149 425.819605 429.501084 434.146133 440.241954 448.990635 467.652557 473.856784 471.957163 470.045284 468.121050 466.184362 464.235125 462.273240 460.298608 458.311130 456.310706 454.297237 452.270622 450.230761 448.177552 446.110894 444.030685 441.936822 439.829204 437.707728 435.572290 433.422788 431.259119 429.081179 426.888864 424.682072 422.460698 420.224640 417.973793 415.708055 413.427322 411.131492 408.820461 406.494129 404.152392 401.795150 399.422301 397.033746 394.629385 392.209118 389.772848 387.320478 384.851911 382.367053 379.865809 377.348087 374.813795 372.262844 369.695146 367.110614 364.509164 361.890713 359.255179 356.602486 353.932557 351.245319 348.540701 345.818635 343.079056 340.321904 337.547119 334.754648 331.944439 329.116447 326.270628 323.406945 320.525364 317.625858 314.708404 311.772983 308.819585 305.848205 302.858842 299.851506 296.826210 293.782976 290.721836 287.642827 284.545995 281.431398 278.299099 275.149173 271.981707 268.796795 265.594546 262.375078 259.138523 255.885026 252.614743 249.327847
712.586327 711.976374 711.363881 710.748833 710.131215 709.511010 708.888203 708.262779 707.634720 707.004010 706.370633 705.734574 705.095814 704.454337 703.810127 703.163166 702.513437 701.860922 701.205606 700.547469 699.886493 699.222662 698.555957 697.886360 697.213853 696.538417 695.860033 695.178683 694.494348 693.807008 693.116645 692.423239 691.726770 691.027219 690.324566 689.618791 688.909874 688.197794 687.482530 686.764063 686.042370 685.317432 684.589226 683.857732 683.122927 682.384790 681.643300 680.898433 680.150167 679.398480 678.643350 677.884753 677.122665 676.357065 675.587928 674.815231 674.038949 673.259059 672.475537 671.688357 670.897494 670.102925 669.304624 668.502566 667.696724 666.887073 666.073587 665.256240 664.435005 663.609855 662.780764 661.947704 661.110648 660.269568 659.424436 658.575224 657.721904 656.864446 656.002823 655.137004 654.266961 653.392663 652.514081 651.631184 650.743942 649.852325 648.956300 648.055838 647.150905 646.241471 645.327503 644.408968 643.485835 642.558069 641.625638 640.688508 639.746645 638.800014 637.848582 636.892312 635.931171 634.965122 633.994130 633.018159 632.037172 631.051132 630.060002 629.063744 628.062322 627.055696 626.043828 625.026679 624.004210 622.976381 621.943153 620.904485 619.860336 618.810666 617.755432 616.694594 615.628108 614.555932 613.478023 612.394338 611.304833 610.209464 609.108186 608.000954 606.887722 605.768446 604.643078 603.511571 602.373879 601.229955 600.079749 598.923214 597.760300 596.590958 595.415139 594.232792 593.043866 591.848309 590.646072 589.437100 588.221341 586.998743 585.769251 584.532812 583.289370 582.038871 580.781258 579.516476 562.937293 549.865944 540.688462 533.106260 526.468632 520.479853 514.975700 509.853785 505.045220 500.501090 496.185243 492.070124 488.134220 484.360409 480.734855 477.246240 473.885218 470.644016 467.516137 464.496135 461.579447 458.762251 456.041372 453.414190 450.878580 448.432857 446.075738 443.806307 441.623993 439.528548 437.520039 435.598836 433.765611 432.021341 430.367309 428.805120 427.336715 425.964388 424.690819 423.519104 422.452799 421.495973 420.653272 419.930000 419.332218 418.866869 418.541935 418.366636 418.351688 418.509636 418.855301 419.406380 420.184281 421.215296 422.532329 424.177506 426.206313 428.694520 431.750620 435.540377 440.342140 446.699916 456.042671 480.644576 478.765042 476.873290 474.969222 473.052739 471.123742 469.182131 467.227805 465.260662 463.280603 461.287523 459.281322 457.261895 455.229138 453.182949 451.123222 449.049853 446.962736 444.861766 442.746837 440.617842 438.474675 436.317229 434.145398 431.959073 429.758149 427.542516 425.312069 423.066699 420.806299 418.530762 416.239980 413.933846 411.612253 409.275095 406.922265 404.553658 402.169168 399.768691 397.352121 394.919356 392.470293 390.004830 387.522865 385.024300 382.509034 379.976971 377.428015 374.862069 372.279042 369.678842 367.061378 364.426563 361.774311 359.104538 356.417164 353.712110 350.989299 348.248659 345.490119 342.713613 339.919077 337.106452 334.275680 331.426711 328.559497 325.673994 322.770164 319.847974 316.907396 313.948407 310.970991 307.975138 304.960843 301.928110 298.876948 295.807376 292.719420 289.613112 286.488497 283.345626 280.184561 277.005373 273.808144 270.592967 267.359948 264.109203 260.840861 257.555065 254.251972
715.846764 715.242639 714.635993 714.026810 713.415075 712.800772 712.183885 711.564399 710.942297 710.317564 709.690182 709.060135 708.427408 707.791982 707.153842 706.512970 705.869349 705.222962 704.573792 703.921821 703.267031 702.609405 701.948924 701.285570 700.619326 699.950173 699.278091 698.603063 697.925070 697.244092 696.560111 695.873107 695.183060 694.489951 693.793760 693.094468 692.392053 691.686495 690.977775 690.265871 689.550763 688.832429 688.110849 687.386001 686.657863 685.926413 685.191631 684.453493 683.711977 682.967061 682.218723 681.466939 680.711686 679.952941 679.190680 678.424880 677.655518 676.882568 676.106007 675.325810 674.541952 673.754409 672.963155 672.168166 671.369415 670.566876 669.760524 668.950332 668.136275 667.318324 666.496454 665.670637 664.840845 664.007052 663.169228 662.327347 661.481379 660.631296 659.777068 658.918668 658.056065 657.189229 656.318132 655.442741 654.563028 653.678961 652.790509 651.897641 651.000325 650.098530 649.192223 648.281371 647.365943 646.445904 645.521222 644.591863 643.657793 642.718977 641.775382 640.826971 639.873711 638.915565 637.952497 636.984472 636.011453 635.033403 634.050284 633.062060 632.068692 631.070142 630.066371 629.057341 628.043013 627.023345 625.998300 624.967835 623.931911 622.890486 621.843518 620.790967 619.732788 618.668940 617.599380 616.524063 615.442947 614.355986 613.263137 612.164353 611.059589 609.948800 608.831938 607.708957 606.579809 605.444448 604.302823 603.154888 602.000592 600.839887 599.672721 598.499045 597.318807 596.131957 594.938441 593.738208 592.531205 591.317378 590.096673 588.869035 587.634411 586.392744 585.143978 583.888056 560.464369 550.086817 541.941367 534.964857 528.745866 523.073298 517.821710 512.909401 508.279691 503.891418 499.713627 495.722406 491.898882 488.227905 484.697145 481.296460 478.017438 474.853057 471.797438 468.845643 465.993535 463.237655 460.575132 458.003612 455.521198 453.126407 450.818130 448.595610 446.458412 444.406417 442.439804 440.559048 438.764918 437.058479 435.441101 433.914470 432.480602 431.141870 429.901030 428.761256 427.726183 426.799963 425.987333 425.293694 424.725215 424.288965 423.993068 423.846913 423.861419 424.049381 424.425933 425.009173 425.821033 426.888515 428.245505 429.935543 432.016238 434.566730 437.701241 441.596271 446.553345 453.179662 463.185230 485.585870 483.714602 481.831064 479.935157 478.026778 476.105828 474.172202 472.225799 470.266514 468.294244 466.308885 464.310329 462.298473 460.273209 458.234430 456.182030 454.115900 452.035932 449.942017 447.834046 445.711909 443.575497 441.424699 439.259405 437.079503 434.884884 432.675434 430.451044 428.211601 425.956994 423.687111 421.401841 419.101071 416.784691 414.452589 412.104653 409.740774 407.360841 404.964743 402.552371 400.123616 397.678370 395.216524 392.737973 390.242609 387.730328 385.201027 382.654602 380.090951 377.509975 374.911575 372.295655 369.662118 367.010872 364.341825 361.654889 358.949977 356.227004 353.485888 350.726552 347.948919 345.152917 342.338477 339.505534 336.654025 333.783893 330.895085 327.987553 325.061252 322.116143 319.152194 316.169376 313.167667 310.147052 307.107522 304.049075 300.971716 297.875459 294.760323 291.626340 288.473546 285.301991 282.111731 278.902835 275.675381 272.429460 269.165172 265.882632 262.581968 259.263321
719.117409 718.519164 717.918415 717.315148 716.709348 716.100999 715.490085 714.876590 714.260499 713.641795 713.020462 712.396483 711.769843 711.140524 710.508509 709.873782 709.236326 708.596124 707.953158 707.307410 706.658863 706.007500 705.353302 704.696252 704.036331 703.373521 702.707802 702.039158 701.367569 700.693015 700.015478 699.334939 698.651378 697.964775 697.275111 696.582366 695.886519 695.187551 694.485440 693.780167 693.071711 692.360050 691.645164 690.927031 690.205629 689.480938 688.752934 688.021597 687.286903 686.548831 685.807358 685.062460 684.314116 683.562301 682.806992 682.048166 681.285799 680.519867 679.750345 678.977210 678.200436 677.419999 676.635873 675.848034 675.056455 674.261111 673.461976 672.659024 671.852229 671.041563 670.226999 669.408512 668.586072 667.759653 666.929227 666.094765 665.256240 664.413622 663.566883 662.715993 661.860924 661.001645 660.138126 659.270338 658.398250 657.521831 656.641050 655.755875 654.866276 653.972220 653.073676 652.170610 651.262990 650.350783 649.433955 648.512473 647.586303 646.655410 645.719761 644.779319 643.834051 642.883919 641.928889 640.968924 640.003988 639.034043 638.059053 637.078979 636.093785 635.103431 634.107879 633.107090 632.101025 631.089644 630.072906 629.050772 628.023200 626.990149 625.951578 624.907445 623.857706 622.802320 621.741243 620.674432 619.601842 618.523428 617.439147 616.348953 615.252800 614.150641 613.042431 611.928123 610.807668 609.681019 608.548127 607.408944 606.263420 605.111506 603.953151 602.788304 601.616915 600.438931 599.254301 598.062971 596.864889 595.660001 594.448252 593.229587 592.003953 590.771292 589.531549 572.427645 559.932474 551.018254 543.620271 537.129068 531.263799 525.867351 520.841311 516.119253 511.653893 507.410218 503.361503 499.486852 495.769615 492.196324 488.755950 485.439373 482.239001 479.148481 476.162478 473.276513 470.486832 467.790299 465.184325 462.666795 460.236021 457.890703 455.629895 453.452981 451.359658 449.349920 447.424052 445.582627 443.826500 442.156822 440.575040 439.082913 437.682532 436.376340 435.167162 434.058245 433.053297 432.156547 431.372816 430.707594 430.167154 429.758678 429.490423 429.371938 429.414332 429.630637 430.036283 430.649750 431.493474 432.595139 433.989585 435.721735 437.851293 440.460756 443.670138 447.666989 452.777350 459.678523 470.433132 490.568267 488.705609 486.830635 484.943241 483.043324 481.130779 479.205504 477.267392 475.316337 473.352233 471.374972 469.384447 467.380549 465.363169 463.332197 461.287523 459.229037 457.156626 455.070179 452.969584 450.854727 448.725495 446.581775 444.423453 442.250413 440.062542 437.859724 435.641843 433.408784 431.160432 428.896670 426.617383 424.322453 422.011766 419.685205 417.342655 414.983998 412.609121 410.217907 407.810242 405.386011 402.945101 400.487397 398.012787 395.521159 393.012402 390.486406 387.943060 385.382258 382.803892 380.207856 377.594046 374.962361 372.312698 369.644959 366.959048 364.254869 361.532329 358.791340 356.031812 353.253663 350.456809 347.641173 344.806680 341.953258 339.080840 336.189362 333.278765 330.348995 327.400002 324.431742 321.444174 318.437266 315.410990 312.365324 309.300256 306.215776 303.111886 299.988593 296.845912 293.683870 290.502499 287.301843 284.081955 280.842900 277.584751 274.307596 271.011533 267.696673 264.363141
722.398251 721.805935 721.211135 720.613836 720.014022 719.411679 718.806790 718.199340 717.589313 716.976692 716.361461 715.743605 715.123107 714.499949 713.874116 713.245591 712.614356 711.980395 711.343690 710.704224 710.061979 709.416937 708.769082 708.118394 707.464856 706.808449 706.149155 705.486955 704.821831 704.153764 703.482735 702.808724 702.131712 701.451679 700.768606 700.082474 699.393261 698.700948 698.005514 697.306939 696.605202 695.900283 695.192159 694.480811 693.766216 693.048352 692.327199 691.602734 690.874934 690.143778 689.409243 688.671306 687.929944 687.185134 686.436853 685.685077 684.929783 684.170946 683.408542 682.642547 681.872936 681.099684 680.322767 679.542159 678.757835 677.969769 677.177934 676.382306 675.582856 674.779560 673.972390 673.161318 672.346318 671.527362 670.704422 669.877470 669.046478 668.211416 667.372257 666.528971 665.681529 664.829901 663.974057 663.113967 662.249600 661.380926 660.507915 659.630533 658.748751 657.862536 656.971856 656.076678 655.176970 654.272699 653.363831 652.450332 651.532170 650.609308 649.681714 648.749351 647.812186 646.870181 645.923301 644.971511 644.014772 643.053049 642.086305 641.114500 640.137599 639.155561 638.168350 637.175924 636.178246 635.175276 634.166972 633.153295 632.134204 631.109657 630.079613 629.044029 628.002864 626.956074 625.903616 624.845446 623.781520 622.711793 621.636222 620.554759 619.467359 618.373977 617.274564 616.169075 615.057462 613.939675 612.815668 611.685390 610.548793 609.405826 608.256439 607.100580 605.938200 604.769245 603.593664 602.411402 601.222408 600.026627 598.824004 597.614485 596.398013 595.174534 589.974188 570.467565 560.409668 552.466731 545.646072 539.556710 533.996404 528.844403 524.021805 519.473747 515.160314 511.051447 507.123895 503.359290 499.742868 496.262605 492.908600 489.672630 486.547826 483.528426 480.609584 477.787233 475.057961 472.418931 469.867803 467.402684 465.022076 462.724848 460.510201 458.377652 456.327015 454.358392 452.472165 450.668994 448.949820 447.315866 445.768653 444.310009 442.942092 441.667409 440.488850 439.409727 438.433816 437.565418 436.809428 436.171421 435.657763 435.275741 435.033738 434.941448 435.010160 435.253125 435.686054 436.327788 437.201242 438.334753 439.764080 441.535489 443.710738 446.375649 449.656053 453.750805 459.011731 466.193662 477.809117 495.591902 493.738206 491.872147 489.993623 488.102527 486.198754 484.282197 482.352748 480.410299 478.454740 476.485963 474.503857 472.508310 470.499211 468.476447 466.439905 464.389471 462.325031 460.246471 458.153673 456.046523 453.924904 451.788698 449.637788 447.472056 445.291383 443.095651 440.884739 438.658529 436.416900 434.159733 431.886907 429.598302 427.293796 424.973270 422.636602 420.283672 417.914359 415.528543 413.126104 410.706921 408.270875 405.817846 403.347717 400.860369 398.355685 395.833547 393.293841 390.736452 388.161264 385.568167 382.957049 380.327800 377.680311 375.014475 372.330189 369.627348 366.905853 364.165604 361.406506 358.628464 355.831388 353.015190 350.179787 347.325095 344.451039 341.557543 338.644539 335.711961 332.759748 329.787844 326.796199 323.784767 320.753509 317.702391 314.631386 311.540474 308.429642 305.298884 302.148202 298.977608 295.787121 292.576769 289.346591 286.096636 282.826963 279.537642 276.228758 272.900403 269.552687
725.689276 725.102940 724.514140 723.922860 723.329085 722.732800 722.133989 721.532636 720.928726 720.322242 719.713168 719.101489 718.487187 717.870246 717.250651 716.628383 716.003426 715.375762 714.745376 714.112249 713.476364 712.837703 712.196249 711.551983 710.904888 710.254945 709.602136 708.946443 708.287846 707.626328 706.961868 706.294448 705.624049 704.950651 704.274234 703.594779 702.912266 702.226675 701.537984 700.846175 700.151225 699.453115 698.751823 698.047328 697.339610 696.628645 695.914413 695.196891 694.476058 693.751890 693.024367 692.293464 691.559160 690.821430 690.080252 689.335603 688.587457 687.835793 687.080585 686.321809 685.559440 684.793454 684.023827 683.250531 682.473543 681.692837 680.908386 680.120165 679.328147 678.532306 677.732615 676.929047 676.121574 675.310169 674.494804 673.675451 672.852082 672.024669 671.193182 670.357592 669.517871 668.673988 667.825914 666.973618 666.117070 665.256240 664.391096 663.521607 662.647742 661.769468 660.886754 659.999568 659.107876 658.211645 657.310842 656.405434 655.495386 654.580665 653.661235 652.737062 651.808110 650.874344 649.935728 648.992226 648.043801 647.090417 646.132035 645.168618 644.200129 643.226529 642.247779 641.263840 640.274673 639.280238 638.280495 637.275403 636.264921 635.249007 634.227621 633.200720 632.168261 631.130202 630.086498 629.037107 627.981984 626.921084 625.854362 624.781773 623.703271 622.618809 621.528341 620.431819 619.329196 618.220423 617.105452 615.984233 614.856717 613.722854 612.582593 611.435883 610.282672 609.122909 607.956540 606.783513 605.603774 604.417269 603.223943 602.023741 600.816607 599.602484 582.295239 570.238302 561.550916 554.319577 547.964539 542.216234 536.923130 531.990017 527.352487 522.964624 518.792380 514.809738 510.996337 507.335938 503.815394 500.423928 497.152621 493.994041 490.941958 487.991138 485.137173 482.376364 479.705614 477.122350 474.624466 472.210266 469.878429 467.627976 465.458246 463.368877 461.359791 459.431188 457.583541 455.817590 454.134352 452.535121 451.021483 449.595331 448.258882 447.014703 445.865743 444.815373 443.867432 443.026284 442.296894 441.684914 441.196793 440.839915 440.622778 440.555212 440.648668 440.916605 441.374991 442.043010 442.944026 444.106997 445.568563 447.376283 449.593912 452.310544 455.657810 459.846051 465.254054 472.722051 485.350149 500.656910 498.812527 496.955741 495.086447 493.204537 491.309904 489.402437 487.482027 485.548564 483.601937 481.642032 479.668737 477.681938 475.681521 473.667371 471.639371 469.597405 467.541355 465.471105 463.386534 461.287523 459.173954 457.045704 454.902654 452.744680 450.571662 448.383477 446.180000 443.961110 441.726681 439.476590 437.210712 434.928921 432.631093 430.317103 427.986825 425.640133 423.276901 420.897005 418.500319 416.086716 413.656073 411.208264 408.743164 406.260650 403.760598 401.242885 398.707389 396.153988 393.582561 390.992990 388.385155 385.758939 383.114226 380.450903 377.768855 375.067972 372.348145 369.609267 366.851232 364.073938 361.277286 358.461177 355.625518 352.770217 349.895187 347.000343 344.085606 341.150898 338.196149 335.221290 332.226260 329.211000 326.175460 323.119593 320.043359 316.946725 313.829665 310.692159 307.534195 304.355771 301.156891 297.937569 294.697828 291.437702 288.157234 284.856479 281.535503 278.194385 274.833214
728.990471 728.410166 727.827417 727.242208 726.654523 726.064348 725.471667 724.876465 724.278725 723.678431 723.075569 722.470121 721.862071 721.251402 720.638099 720.022145 719.403522 718.782214 718.158204 717.531473 716.902006 716.269784 715.634790 714.997006 714.356414 713.712996 713.066733 712.417607 711.765599 711.110692 710.452865 709.792100 709.128377 708.461678 707.791982 707.119270 706.443522 705.764718 705.082838 704.397861 703.709766 703.018534 702.324143 701.626571 700.925798 700.221803 699.514563 698.804056 698.090261 697.373156 696.652717 695.928923 695.201750 694.471176 693.737177 692.999730 692.258811 691.514396 690.766462 690.014983 689.259937 688.501297 687.739039 686.973138 686.203569 685.430305 684.653322 683.872592 683.088091 682.299790 681.507664 680.711686 679.911827 679.108062 678.300362 677.488698 676.673044 675.853370 675.029647 674.201847 673.369940 672.533897 671.693688 670.849282 670.000650 669.147761 668.290583 667.429087 666.563239 665.693008 664.818363 663.939271 663.055698 662.167613 661.274982 660.377770 659.475945 658.569472 657.658316 656.742443 655.821817 654.896403 653.966164 653.031065 652.091069 651.146139 650.196238 649.241328 648.281371 647.316329 646.346163 645.370834 644.390302 643.404528 642.413472 641.417092 640.415348 639.408198 638.395601 637.377515 636.353896 635.324702 634.289890 633.249415 632.203233 631.151299 630.093569 629.029997 627.960536 626.885141 625.803764 624.716358 623.622875 622.523266 621.417484 620.305478 619.187199 618.062596 616.931620 615.794218 614.650338 613.499930 612.342939 611.179313 610.008997 608.831938 607.648080 606.457368 605.259746 598.837759 580.740862 570.945334 563.181585 556.504040 550.536443 545.083248 540.027367 535.292148 530.824216 526.584694 522.544281 518.680291 514.974787 511.413346 507.984207 504.677679 501.485707 498.401553 495.419558 492.534957 489.743740 487.042538 484.428537 481.899408 479.453254 477.088564 474.804174 472.599249 470.473251 468.425930 466.457309 464.567679 462.757592 461.027866 459.379586 457.814110 456.333087 454.938464 453.632515 452.417861 451.297505 450.274870 449.353852 448.538873 447.834960 447.247832 446.784016 446.450985 446.257338 446.213027 446.329657 446.620871 447.102882 447.795184 448.721568 449.911574 451.402675 453.243667 455.500234 458.264661 461.674319 465.951136 471.501888 479.260450 493.121882 505.763419 503.928705 502.081552 500.221853 498.349497 496.464375 494.566375 492.655386 490.731293 488.793985 486.843345 484.879259 482.901611 480.910282 478.905156 476.886113 474.853035 472.805800 470.744288 468.668377 466.577945 464.472868 462.353023 460.218285 458.068528 455.903628 453.723457 451.527889 449.316796 447.090050 444.847523 442.589086 440.314609 438.023963 435.717018 433.393644 431.053710 428.697086 426.323641 423.933244 421.525764 419.101071 416.659034 414.199523 411.722408 409.227558 406.714845 404.184140 401.635315 399.068242 396.482795 393.878848 391.256276 388.614956 385.954765 383.275584 380.577292 377.859772 375.122908 372.366586 369.590696 366.795127 363.979773 361.144530 358.289297 355.413976 352.518472 349.602694 346.666555 343.709972 340.732865 337.735161 334.716790 331.677689 328.617797 325.537064 322.435441 319.312889 316.169376 313.004874 309.819366 306.612843 303.385302 300.136753 296.867212 293.576706 290.265275 286.932968 283.579845 280.205980
732.301824 731.727601 731.150953 730.571866 729.990323 729.406311 728.819813 728.230813 727.639297 727.045248 726.448650 725.849488 725.247744 724.643403 724.036449 723.426864 722.814632 722.199736 721.582159 720.961883 720.338892 719.713168 719.084693 718.453450 717.819421 717.182588 716.542931 715.900434 715.255078 714.606844 713.955712 713.301665 712.644683 711.984746 711.321836 710.655932 709.987015 709.315065 708.640061 707.961984 707.280813 706.596526 705.909104 705.218526 704.524769 703.827813 703.127636 702.424216 701.717532 701.007561 700.294280 699.577668 698.857702 698.134358 697.407613 696.677445 695.943829 695.206742 694.466160 693.722058 692.974413 692.223199 691.468392 690.709967 689.947898 689.182160 688.412727 687.639574 686.862673 686.081999 685.297525 684.509223 683.717068 682.921030 682.121083 681.317199 680.509350 679.697507 678.881641 678.061723 677.237725 676.409616 675.577367 674.740949 673.900330 673.055479 672.206367 671.352962 670.495233 669.633147 668.766672 667.895777 667.020429 666.140594 665.256240 664.367332 663.473838 662.575722 661.672950 660.765487 659.853299 658.936348 658.014601 657.088020 656.156569 655.220210 654.278908 653.332623 652.381318 651.424955 650.463495 649.496899 648.525127 647.548140 646.565897 645.578358 644.585481 643.587226 642.583550 641.574411 640.559766 639.539573 638.513788 637.482367 636.445266 635.402439 634.353843 633.299430 632.239156 631.172973 630.100834 629.022692 627.938499 626.848207 625.751766 624.649127 623.540241 622.425057 621.303524 620.175591 619.041205 617.900315 616.752868 615.598809 614.438085 613.270642 612.096424 610.915376 609.727442 592.504243 580.772642 572.279173 565.198196 558.969720 553.332230 548.138375 543.295430 538.740603 534.429089 530.327642 526.410841 522.658780 519.055572 515.588347 512.246547 509.021430 505.905699 502.893234 499.978885 497.158310 494.427851 491.784443 489.225526 486.748996 484.353145 482.036630 479.798434 477.637850 475.554457 473.548106 471.618913 469.767250 467.993746 466.299288 464.685023 463.152370 461.703030 460.339004 459.062616 457.876534 456.783811 455.787918 454.892798 454.102926 453.423385 452.859954 452.419228 452.108758 451.937235 451.914722 452.052957 452.365758 452.869554 453.584129 454.533664 455.748243 457.266122 459.137269 461.429209 464.237318 467.704597 472.064564 477.752823 485.805376 501.259459 510.911553 509.086868 507.249712 505.399975 503.537545 501.662310 499.774158 497.872973 495.958640 494.031044 492.090067 490.135592 488.167500 486.185671 484.189984 482.180319 480.156553 478.118562 476.066223 473.999412 471.918002 469.821867 467.710880 465.584913 463.443837 461.287523 459.115842 456.928661 454.725850 452.507278 450.272810 448.022315 445.755658 443.472706 441.173324 438.857377 436.524729 434.175247 431.808792 429.425230 427.024425 424.606239 422.170538 419.717184 417.246042 414.756975 412.249849 409.724528 407.180877 404.618763 402.038050 399.438607 396.820302 394.183003 391.526580 388.850905 386.155851 383.441290 380.707100 377.953157 375.179340 372.385532 369.571615 366.737477 363.883005 361.008093 358.112633 355.196526 352.259672 349.301976 346.323349 343.323703 340.302959 337.261038 334.197869 331.113387 328.007531 324.880248 321.731491 318.561219 315.369399 312.156007 308.921027 305.664449 302.386276 299.086519 295.765200 292.422349 289.058013 285.672245
735.623320 735.055230 734.484735 733.911820 733.336472 732.758674 732.178411 731.595667 731.010428 730.422677 729.832398 729.239576 728.644193 728.046235 727.445685 726.842526 726.236741 725.628314 725.017227 724.403464 723.787007 723.167840 722.545944 721.921301 721.293895 720.663706 720.030718 719.394911 718.756268 718.114769 717.470396 716.823129 716.172951 715.519842 714.863782 714.204751 713.542731 712.877701 712.209641 711.538531 710.864350 710.187078 709.506694 708.823178 708.136507 707.446661 706.753618 706.057357 705.357855 704.655091 703.949043 703.239687 702.527001 701.810963 701.091549 700.368735 699.642500 698.912818 698.179666 697.443020 696.702856 695.959148 695.211873 694.461005 693.706519 692.948389 692.186591 691.421097 690.651882 689.878920 689.102184 688.321647 687.537281 686.749061 685.956957 685.160942 684.360988 683.557068 682.749151 681.937209 681.121213 680.301134 679.476941 678.648606 677.816097 676.979384 676.138436 675.293222 674.443711 673.589871 672.731671 671.869076 671.002056 670.130577 669.254606 668.374109 667.489053 666.599403 665.705125 664.806184 663.902545 662.994172 662.081030 661.163081 660.240291 659.312621 658.380035 657.442495 656.499963 655.552401 654.599769 653.642030 652.679143 651.711068 650.737766 649.759195 648.775315 647.786084 646.791461 645.791403 644.785867 643.774810 642.758190 641.735961 640.708080 639.674501 638.635180 637.590071 636.539127 635.482303 634.419550 633.350822 632.276070 631.195245 630.108300 629.015184 627.915847 626.810239 625.698309 624.580006 623.455276 622.324069 621.186331 620.042007 618.891045 617.733389 616.568984 615.397774 608.757019 591.270538 581.685815 574.079559 567.533136 561.679869 556.328907 551.365877 546.715853 542.326640 538.160205 534.187868 530.387417 526.741282 523.235327 519.858020 516.599851 513.452908 510.410568 507.467261 504.618290 501.859693 499.188135 496.600819 494.095424 491.670045 489.323149 487.053545 484.860353 482.742985 480.701122 478.734712 476.843955 475.029298 473.291440 471.631330 470.050173 468.549442 467.130886 465.796556 464.548817 463.390384 462.324348 461.354226 460.484003 459.718200 459.061947 458.521077 458.102243 457.813065 457.662314 457.660151 457.818435 458.151134 458.674876 459.409706 460.380160 461.616825 463.158681 465.056793 467.380433 470.227933 473.747769 478.184943 484.004493 492.353073 510.136031 516.101432 514.287139 512.460346 510.620943 508.768815 506.903848 505.025926 503.134934 501.230754 499.313267 497.382355 495.437897 493.479772 491.507858 489.522032 487.522169 485.508144 483.479833 481.437107 479.379839 477.307901 475.221162 473.119493 471.002762 468.870837 466.723586 464.560874 462.382567 460.188530 457.978627 455.752722 453.510677 451.252354 448.977615 446.686321 444.378332 442.053508 439.711709 437.352794 434.976621 432.583051 430.171939 427.743146 425.296528 422.831944 420.349252 417.848310 415.328977 412.791110 410.234569 407.659214 405.064905 402.451501 399.818864 397.166858 394.495344 391.804187 389.093253 386.362409 383.611524 380.840468 378.049112 375.237332 372.405002 369.552004 366.678217 363.783525 360.867817 357.930983 354.972916 351.993515 348.992680 345.970320 342.926343 339.860666 336.773209 333.663899 330.532669 327.379456 324.204206 321.006872 317.787412 314.545796 311.281999 307.996006 304.687811 301.357420 298.004846 294.630117 291.233268
738.954946 738.393038 737.828747 737.262057 736.692954 736.121422 735.547447 734.971012 734.392103 733.810704 733.226798 732.640370 732.051404 731.459884 730.865793 730.269116 729.669835 729.067933 728.463394 727.856202 727.246337 726.633785 726.018526 725.400544 724.779820 724.156338 723.530078 722.901023 722.269153 721.634452 720.996900 720.356478 719.713168 719.066950 718.417805 717.765713 717.110655 716.452611 715.791561 715.127486 714.460363 713.790174 713.116897 712.440512 711.760998 711.078332 710.392495 709.703464 709.011217 708.315733 707.616989 706.914964 706.209633 705.500976 704.788968 704.073586 703.354808 702.632609 701.906966 701.177854 700.445250 699.709129 698.969466 698.226237 697.479416 696.728978 695.974897 695.217148 694.455704 693.690540 692.921628 692.148942 691.372455 690.592139 689.807968 689.019913 688.227946 687.432039 686.632164 685.828291 685.020392 684.208437 683.392396 682.572240 681.747939 680.919461 680.086777 679.249855 678.408663 677.563171 676.713346 675.859156 675.000568 674.137550 673.270069 672.398090 671.521581 670.640506 669.754832 668.864524 667.969546 667.069863 666.165440 665.256240 664.342226 663.423363 662.499612 661.570936 660.637297 659.698656 658.754976 657.806217 656.852340 655.893304 654.929070 653.959596 652.984843 652.004767 651.019329 650.028485 649.032192 648.030408 647.023089 646.010191 644.991670 643.967480 642.937578 641.901916 640.860448 639.813129 638.759910 637.700745 636.635584 635.564381 634.487084 633.403646 632.314016 631.218143 630.115976 629.007464 627.892554 626.771194 625.643331 624.508911 623.367880 622.220182 621.065763 619.904567 603.033510 591.526649 583.196277 576.250227 570.139164 564.606623 559.508116 554.752729 550.278894 546.042678 542.011480 538.160367 534.469809 530.924218 527.510957 524.219657 521.041724 517.969980 514.998400 512.121902 509.336199 506.637671 504.023273 501.490456 499.037111 496.661516 494.362301 492.138414 489.989099 487.913874 485.912521 483.985071 482.131801 480.353231 478.650121 477.023476 475.474555 474.004878 472.616240 471.310732 470.090761 468.959077 467.918812 466.973516 466.127214 465.384463 464.750437 464.231012 463.832892 463.563756 463.432443 463.449199 463.625985 463.976905 464.518758 465.271824 466.260959 467.517202 469.080198 471.002028 473.353595 476.236034 479.803083 484.311009 490.254600 498.899487 523.124295 521.333170 519.529635 517.713578 515.884883 514.043435 512.189119 510.321817 508.441410 506.547779 504.640804 502.720362 500.786332 498.838590 496.877011 494.901469 492.911838 490.907991 488.889797 486.857129 484.809855 482.747843 480.670961 478.579075 476.472051 474.349754 472.212046 470.058791 467.889851 465.705086 463.504357 461.287523 459.054444 456.804976 454.538977 452.256304 449.956812 447.640356 445.306793 442.955974 440.587755 438.201988 435.798527 433.377224 430.937931 428.480500 426.004784 423.510634 420.997903 418.466442 415.916103 413.346740 410.758204 408.150350 405.523030 402.876100 400.209415 397.522831 394.816205 392.089396 389.342263 386.574668 383.786473 380.977544 378.147745 375.296947 372.425021 369.531839 366.617278 363.681217 360.723540 357.744131 354.742881 351.719683 348.674435 345.607041 342.517406 339.405444 336.271073 333.114218 329.934808 326.732782 323.508082 320.260662 316.990481 313.697508 310.381719 307.043103 303.681655 300.297385 296.890310
742.296686 741.741012 741.182975 740.622561 740.059755 739.494542 738.926907 738.356834 737.784308 737.209314 736.631835 736.051856 735.469361 734.884334 734.296759 733.706619 733.113898 732.518579 731.920645 731.320081 730.716867 730.110988 729.502426 728.891163 728.277183 727.660466 727.040995 726.418753 725.793720 725.165879 724.535211 723.901697 723.265318 722.626055 721.983890 721.338802 720.690772 720.039781 719.385808 718.728834 718.068838 717.405799 716.739699 716.070514 715.398226 714.722812 714.044251 713.362521 712.677602 711.989471 711.298105 710.603484 709.905583 709.204382 708.499856 707.791982 707.080738 706.366100 705.648043 704.926545 704.201581 703.473127 702.741158 702.005649 701.266575 700.523911 699.777632 699.027711 698.274124 697.516843 696.755842 695.991094 695.222573 694.450252 693.674102 692.894097 692.110208 691.322407 690.530666 689.734955 688.935247 688.131511 687.323718 686.511838 685.695842 684.875698 684.051376 683.222846 682.390075 681.553032 680.711686 679.866003 679.015953 678.161502 677.302616 676.439263 675.571408 674.699018 673.822058 672.940493 672.054289 671.163410 670.267820 669.367484 668.462364 667.552423 666.637626 665.717933 664.793308 663.863712 662.929106 661.989452 661.044709 660.094838 659.139800 658.179552 657.214055 656.243267 655.267145 654.285649 653.298735 652.306359 651.308479 650.305051 649.296030 648.281371 647.261029 646.234959 645.203113 644.165446 643.121910 642.072457 641.017040 639.955610 638.888117 637.814513 636.734746 635.648767 634.556523 633.457965 632.353038 631.241692 630.123871 628.999523 627.868593 626.731026 625.586767 619.502848 602.046834 592.624061 585.154518 578.727695 572.981603 567.728189 562.854878 558.287975 553.976167 549.882070 545.977501 542.240632 538.654197 535.204299 531.879596 528.670734 525.569923 522.570636 519.667378 516.855510 514.131109 511.490865 508.931996 506.452179 504.049499 501.722402 499.469664 497.290362 495.183853 493.149755 491.187938 489.298513 487.481828 485.738465 484.069241 482.475215 480.957692 479.518234 478.158679 476.881152 475.688094 474.582292 473.566905 472.645518 471.822184 471.101496 470.488659 469.989587 469.611026 469.360702 469.247513 469.281773 469.475533 469.843008 470.401149 471.170437 472.176011 473.449314 475.030588 476.972841 479.348480 482.261260 485.869919 490.441642 496.500945 505.440234 528.386855 526.606877 524.814471 523.009522 521.191914 519.361531 517.518253 515.661961 513.792536 511.909855 510.013796 508.104235 506.181048 504.244108 502.293288 500.328461 498.349497 496.356266 494.348636 492.326475 490.289649 488.238025 486.171465 484.089834 481.992994 479.880805 477.753129 475.609824 473.450749 471.275762 469.084717 466.877472 464.653880 462.413796 460.157072 457.883561 455.593113 453.285579 450.960810 448.618654 446.258961 443.881577 441.486351 439.073130 436.641761 434.192089 431.723960 429.237221 426.731718 424.207294 421.663797 419.101071 416.518963 413.917318 411.295982 408.654803 405.993628 403.312305 400.610683 397.888611 395.145941 392.382524 389.598214 386.792866 383.966337 381.118485 378.249170 375.358257 372.445610 369.511096 366.554588 363.575959 360.575086 357.551851 354.506140 351.437840 348.346847 345.233059 342.096380 338.936719 335.753993 332.548122 329.319037 326.066672 322.790971 319.491885 316.169376 312.823411 309.453970 306.061043 302.644629
745.648526 745.099135 744.547404 743.993317 743.436860 742.878018 742.316775 741.753117 741.187027 740.618491 740.047494 739.474018 738.898049 738.319570 737.738566 737.155020 736.568915 735.980236 735.388965 734.795085 734.198581 733.599434 732.997627 732.393144 731.785966 731.176075 730.563455 729.948087 729.329952 728.709033 728.085312 727.458768 726.829384 726.197142 725.562020 724.924001 724.283065 723.639193 722.992364 722.342558 721.689757 721.033938 720.375082 719.713168 719.048175 718.380083 717.708869 717.034514 716.356994 715.676288 714.992374 714.305231 713.614835 712.921165 712.224196 711.523907 710.820274 710.113274 709.402883 708.689078 707.971833 707.251126 706.526931 705.799224 705.067980 704.333174 703.594779 702.852772 702.107126 701.357814 700.604810 699.848089 699.087622 698.323383 697.555345 696.783480 696.007759 695.228156 694.444641 693.657187 692.865763 692.070342 691.270892 690.467386 689.659792 688.848080 688.032220 687.212181 686.387931 685.559440 684.726675 683.889605 683.048196 682.202416 681.352233 680.497613 679.638521 678.774925 677.906790 677.034081 676.156763 675.274801 674.388159 673.496801 672.600690 671.699791 670.794066 669.883477 668.967986 668.047556 667.122148 666.191722 665.256240 664.315661 663.369946 662.419053 661.462943 660.501573 659.534901 658.562886 657.585486 656.602655 655.614353 654.620533 653.621152 652.616166 651.605528 650.589194 649.567116 648.539248 647.505544 646.465954 645.420432 644.368928 643.311394 642.247779 641.178034 640.102108 639.019949 637.931506 636.836727 635.735559 634.627949 633.513842 632.393184 631.265920 630.131995 613.873474 602.493237 594.295973 587.469837 581.467299 576.034016 571.027087 566.356745 561.962272 557.800373 553.838937 550.053414 546.424579 542.937085 539.578490 536.338581 533.208888 530.182334 527.252971 524.415778 521.666510 519.001576 516.417946 513.913078 511.484853 509.131533 506.851719 504.644320 502.508532 500.443813 498.449876 496.526670 494.674379 492.893416 491.184420 489.548260 487.986042 486.499112 485.089073 483.757794 482.507437 481.340470 480.259707 479.268337 478.369967 477.568679 476.869088 476.276428 475.796642 475.436509 475.203793 475.107435 475.157807 475.367032 475.749416 476.322036 477.105545 478.125323 479.413164 481.009839 482.969185 485.364973 488.303371 491.947798 496.575879 502.741460 511.970574 533.691121 531.922659 530.141754 528.348291 526.542153 524.723219 522.891370 521.046484 519.188440 517.317114 515.432381 513.534115 511.622190 509.696477 507.756846 505.803167 503.835309 501.853138 499.856521 497.845323 495.819406 493.778634 491.722868 489.651969 487.565794 485.464203 483.347052 481.214197 479.065494 476.900794 474.719952 472.522819 470.309245 468.079080 465.832174 463.568372 461.287523 458.989473 456.674066 454.341148 451.990561 449.622148 447.235752 444.831215 442.408377 439.967079 437.507161 435.028462 432.530822 430.014080 427.478075 424.922645 422.347629 419.752866 417.138195 414.503455 411.848484 409.173124 406.477215 403.760598 401.023115 398.264608 395.484923 392.683905 389.861399 387.017256 384.151324 381.263456 378.353507 375.421334 372.466794 369.489752 366.490071 363.467621 360.422273 357.353904 354.262395 351.147630 348.009498 344.847894 341.662720 338.453881 335.221290 331.964867 328.684538 325.380238 322.051910 318.699504 315.322982 311.922314 308.497480
749.010450 748.467394 747.922019 747.374310 746.824254 746.271834 745.717036 745.159845 744.600245 744.038221 743.473758 742.906840 742.337452 741.765576 741.191199 740.614302 740.034870 739.452887 738.868336 738.281200 737.691462 737.099106 736.504114 735.906469 735.306153 734.703150 734.097441 733.489008 732.877833 732.263899 731.647186 731.027676 730.405352 729.780193 729.152180 728.521296 727.887519 727.250832 726.611213 725.968644 725.323104 724.674573 724.023031 723.368456 722.710830 722.050129 721.386335 720.719424 720.049375 719.376168 718.699780 718.020189 717.337372 716.651308 715.961973 715.269345 714.573400 713.874116 713.171469 712.465435 711.755990 711.043109 710.326770 709.606947 708.883614 708.156748 707.426323 706.692313 705.954693 705.213436 704.468517 703.719908 702.967584 702.211516 701.451679 700.688044 699.920584 699.149270 698.374075 697.594969 696.811925 696.024913 695.233903 694.438866 693.639772 692.836591 692.029292 691.217845 690.402218 689.582380 688.758299 687.929944 687.097282 686.260280 685.418906 684.573126 683.722906 682.868214 682.009013 681.145271 680.276952 679.404020 678.526440 677.644177 676.757193 675.865453 674.968918 674.067553 673.161318 672.250176 671.334089 670.413016 669.486920 668.555760 667.619496 666.678087 665.731494 664.779674 663.822585 662.860186 661.892434 660.919286 659.940698 658.956627 657.967028 656.971856 655.971066 654.964612 653.952448 652.934528 651.910804 650.881228 649.845753 648.804329 647.756908 646.703440 645.643874 644.578161 643.506248 642.428084 641.343617 640.252794 639.155561 638.051865 636.941651 635.824863 631.316225 613.063712 603.753943 596.400570 590.082009 584.436080 579.275635 574.488997 570.003210 565.767548 561.745093 557.908033 554.234837 550.708478 547.315252 544.043976 540.885420 537.831896 534.876959 532.015175 529.241948 526.553390 523.946210 521.417631 518.965329 516.587371 514.282183 512.048504 509.885369 507.792079 505.768189 503.813495 501.928021 500.112017 498.365953 496.690522 495.086639 493.555453 492.098346 490.716956 489.413182 488.189213 487.047543 485.991010 485.022821 484.146607 483.366467 482.687038 482.113570 481.652031 481.309221 481.092933 481.012140 481.077258 481.300461 481.696131 482.281443 483.077188 484.108947 485.408812 487.018008 488.991094 491.403057 494.362246 498.036389 502.712941 508.974247 518.485405 539.037190 537.280615 535.511588 533.729992 531.935707 530.128613 528.308587 526.475507 524.629249 522.769686 520.896692 519.010140 517.109899 515.195841 513.267832 511.325741 509.369432 507.398771 505.413622 503.413845 501.399303 499.369855 497.325359 495.265673 493.190653 491.100153 488.994027 486.872128 484.734307 482.580414 480.410299 478.223808 476.020789 473.801087 471.564546 469.311012 467.040324 464.752327 462.446859 460.123760 457.782870 455.424025 453.047063 450.651820 448.238132 445.805833 443.354758 440.884739 438.395611 435.887205 433.359354 430.811890 428.244644 425.657448 423.050134 420.422532 417.774475 415.105795 412.416323 409.705892 406.974336 404.221488 401.447183 398.651257 395.833547 392.993892 390.132131 387.248105 384.341657 381.412635 378.460883 375.486255 372.488601 369.467778 366.423645 363.356065 360.264905 357.150036 354.011331 350.848673 347.661945 344.451039 341.215851 337.956284 334.672248 331.363661 328.030447 324.672539 321.289879 317.882419 314.450119
752.382441 751.845770 751.306803 750.765524 750.221919 749.675974 749.127673 748.577001 748.023944 747.468487 746.910612 746.350306 745.787553 745.222336 744.654640 744.084449 743.511747 742.936516 742.358742 741.778407 741.195494 740.609987 740.021869 739.431122 738.837729 738.241672 737.642935 737.041498 736.437345 735.830458 735.220817 734.608404 733.993202 733.375191 732.754352 732.130667 731.504116 730.874679 730.242338 729.607072 728.968862 728.327687 727.683527 727.036362 726.386171 725.732934 725.076628 724.417234 723.754730 723.089094 722.420304 721.748339 721.073176 720.394793 719.713168 719.028277 718.340098 717.648608 716.953782 716.255599 715.554032 714.849060 714.140657 713.428799 712.713461 711.994618 711.272245 710.546317 709.816808 709.083693 708.346944 707.606536 706.862441 706.114634 705.363088 704.607773 703.848664 703.085732 702.318949 701.548286 700.773715 699.995207 699.212733 698.426262 697.635766 696.841214 696.042576 695.239821 694.432917 693.621835 692.806542 691.987006 691.163195 690.335077 689.502618 688.665786 687.824547 686.978867 686.128713 685.274049 684.414841 683.551053 682.682651 681.809597 680.931857 680.049394 679.162169 678.270147 677.373289 676.471558 675.564914 674.653320 673.736735 672.815121 671.888436 670.956642 670.019696 669.077558 668.130185 667.177536 666.219569 665.256240 664.287505 663.313322 662.333645 661.348430 660.357631 659.361203 658.359100 657.351275 656.337681 655.318270 654.292994 653.261804 652.224652 651.181487 650.132260 649.076919 648.015414 646.947693 645.873703 644.793391 643.706705 642.613589 641.513990 640.407852 625.026321 613.667101 605.572507 598.851280 592.948443 587.608796 582.689733 578.101976 573.785280 569.696756 565.804633 562.084641 558.517784 555.088905 551.785716 548.598128 545.517775 542.537661 539.651900 536.855520 534.144309 531.514698 528.963669 526.488675 524.087591 521.758655 519.500439 517.311813 515.191924 513.140172 511.156200 509.239878 507.391300 505.610776 503.898829 502.256198 500.683843 499.182946 497.754926 496.401447 495.124437 493.926107 492.808971 491.775885 490.830075 489.975184 489.215325 488.555149 487.999919 487.555615 487.229053 487.028042 486.961578 487.040101 487.275827 487.683186 488.279427 489.085448 490.126987 491.436377 493.055220 495.038687 497.462818 500.437888 504.135516 508.852238 515.197616 524.979261 544.425153 542.680840 540.924071 539.154725 537.372683 535.577822 533.770017 531.949145 530.115079 528.267692 526.406854 524.532438 522.644310 520.742338 518.826390 516.896328 514.952018 512.993321 511.020098 509.032208 507.029511 505.011863 502.979119 500.931135 498.867762 496.788853 494.694258 492.583827 490.457407 488.314845 486.155986 483.980675 481.788754 479.580065 477.354449 475.111744 472.851789 470.574422 468.279477 465.966790 463.636194 461.287523 458.920609 456.535281 454.131370 451.708705 449.267115 446.806427 444.326468 441.827064 439.308041 436.769224 434.210438 431.631507 429.032255 426.412506 423.772084 421.110813 418.428516 415.725018 413.000144 410.253718 407.485565 404.695512 401.883387 399.049016 396.192230 393.312860 390.410737 387.485696 384.537572 381.566204 378.571433 375.553102 372.511057 369.445147 366.355225 363.241148 360.102776 356.939975 353.752614 350.540569 347.303719 344.041951 340.755159 337.443240 334.106104 330.743663 327.355842 323.942571 320.503792
755.764485 755.234249 754.701739 754.166941 753.629840 753.090421 752.548669 752.004571 751.458109 750.909271 750.358039 749.804399 749.248335 748.689832 748.128874 747.565444 746.999527 746.431107 745.860167 745.286690 744.710660 744.132061 743.550875 742.967085 742.380674 741.791625 741.199920 740.605542 740.008472 739.408693 738.806187 738.200934 737.592918 736.982119 736.368519 735.752098 735.132838 734.510718 733.885721 733.257826 732.627013 731.993262 731.356554 730.716867 730.074182 729.428478 728.779733 728.127927 727.473039 726.815047 726.153929 725.489664 724.822230 724.151604 723.477764 722.800687 722.120350 721.436731 720.749806 720.059551 719.365944 718.668959 717.968573 717.264762 716.557501 715.846764 715.132528 714.414766 713.693454 712.968565 712.240073 711.507953 710.772177 710.032719 709.289552 708.542649 707.791982 707.037523 706.279245 705.517119 704.751116 703.981207 703.207364 702.429557 701.647757 700.861932 700.072054 699.278091 698.480013 697.677788 696.871385 696.060772 695.245918 694.426789 693.603353 692.775576 691.943427 691.106870 690.265871 689.420398 688.570413 687.715884 686.856773 685.993046 685.124666 684.251597 683.373802 682.491243 681.603884 680.711686 679.814610 678.912618 678.005671 677.093730 676.176753 675.254702 674.327534 673.395210 672.457687 671.514923 670.566876 669.613503 668.654760 667.690604 666.720991 665.745875 664.765212 663.778955 662.787060 661.789478 660.786164 659.777068 658.762144 657.741343 656.714615 655.681912 654.643181 653.598374 652.547439 651.490324 650.426976 649.357343 648.281371 647.199007 646.110195 645.014881 624.319189 615.070321 607.812089 601.590359 596.037575 590.965542 586.262558 581.855909 577.695163 573.743680 569.973895 566.364488 562.898607 559.562699 556.345701 553.238484 550.233441 547.324191 544.505347 541.772352 539.121339 536.549029 534.052650 531.629867 529.278734 526.997646 524.785311 522.640716 520.563112 518.551989 516.607070 514.728296 512.915821 511.170010 509.491435 507.880877 506.339333 504.868019 503.468381 502.142110 500.891155 499.717744 498.624411 497.614022 496.689815 495.855444 495.115031 494.473230 493.935314 493.507265 493.195907 493.009054 492.955712 493.046335 493.293157 493.710640 494.316079 495.130446 496.179593 497.496033 499.121666 501.112162 503.544440 506.530428 510.245166 514.993395 521.410130 531.446352 549.855096 548.123424 546.379294 544.622587 542.853179 541.070947 539.275764 537.467506 535.646044 533.811248 531.962989 530.101134 528.225550 526.336102 524.432655 522.515071 520.583212 518.636937 516.676104 514.700572 512.710195 510.704827 508.684323 506.648533 504.597307 502.530495 500.447943 498.349497 496.235002 494.104302 491.957238 489.793650 487.613378 485.416259 483.202131 480.970828 478.722183 476.456031 474.172202 471.870526 469.550833 467.212950 464.856704 462.481921 460.088425 457.676040 455.244588 452.793892 450.323771 447.834046 445.324536 442.795059 440.245434 437.675477 435.085006 432.473836 429.841784 427.188666 424.514298 421.818494 419.101071 416.361845 413.600632 410.817248 408.011512 405.183241 402.332254 399.458371 396.561413 393.641204 390.697567 387.730328 384.739317 381.724363 378.685300 375.621963 372.534192 369.421829 366.284719 363.122714 359.935667 356.723437 353.485888 350.222891 346.934320 343.620058 340.279993 336.914022 333.522047 330.103981 326.659745
759.156563 758.632813 758.106812 757.578545 757.047999 756.515158 755.980008 755.442535 754.902722 754.360556 753.816021 753.269101 752.719782 752.168048 751.613882 751.057270 750.498194 749.936640 749.372591 748.806031 748.236942 747.665309 747.091114 746.514341 745.934972 745.352990 744.768379 744.181119 743.591194 742.998586 742.403277 741.805248 741.204482 740.600959 739.994661 739.385570 738.773666 738.158930 737.541343 736.920886 736.297538 735.671280 735.042091 734.409953 733.774843 733.136743 732.495630 731.851484 731.204284 730.554009 729.900636 729.244145 728.584514 727.921720 727.255740 726.586554 725.914136 725.238466 724.559520 723.877274 723.191704 722.502788 721.810500 721.114818 720.415715 719.713168 719.007152 718.297641 717.584610 716.868034 716.147886 715.424141 714.696771 713.965752 713.231054 712.492653 711.750519 711.004626 710.254945 709.501448 708.744108 707.982894 707.217779 706.448732 705.675724 704.898726 704.117708 703.332637 702.543485 701.750220 700.952811 700.151225 699.345432 698.535398 697.721091 696.902478 696.079527 695.252202 694.420471 693.584299 692.743652 691.898494 691.048790 690.194505 689.335603 688.472046 687.603800 686.730825 685.853085 684.970543 684.083159 683.190895 682.293711 681.391570 680.484430 679.572251 678.654993 677.732615 676.805075 675.872331 674.934340 673.991061 673.042449 672.088460 671.129052 670.164178 669.193795 668.217855 667.236314 666.249125 665.256240 664.257612 663.253193 662.242934 661.226787 660.204702 659.176628 658.142515 657.102312 656.055967 655.003427 653.944640 652.879552 651.808110 650.730258 636.509804 625.044964 617.020712 610.388930 604.576830 599.325153 594.490234 589.982607 585.742112 581.726034 577.902789 574.248282 570.743676 567.373947 564.126924 560.992613 557.962726 555.030330 552.189590 549.435569 546.764080 544.171570 541.655022 539.211888 536.840026 534.537653 532.303309 530.135825 528.034297 525.998069 524.026716 522.120032 520.278023 518.500899 516.789074 515.143163 513.563987 512.052573 510.610168 509.238242 507.938506 506.712928 505.563750 504.493517 503.505106 502.601760 501.787139 501.065365 500.441095 499.919599 499.506858 499.209692 499.035912 498.994521 499.095972 499.352500 499.778579 500.391522 501.212340 502.266957 503.588006 505.217604 507.211798 509.648207 512.640121 516.365489 521.136254 527.610646 537.880641 555.327102 553.608451 551.877347 550.133667 548.377289 546.608085 544.825930 543.030695 541.222251 539.400466 537.565209 535.716346 533.853741 531.977258 530.086759 528.182104 526.263152 524.329762 522.381789 520.419087 518.441511 516.448911 514.441138 512.418041 510.379467 508.325262 506.255270 504.169334 502.067295 499.948993 497.814267 495.662953 493.494887 491.309904 489.107834 486.888511 484.651763 482.397420 480.125307 477.835251 475.527075 473.200604 470.855658 468.492059 466.109625 463.708174 461.287523 458.847489 456.387886 453.908528 451.409227 448.889795 446.350044 443.789784 441.208824 438.606973 435.984040 433.339833 430.674159 427.986825 425.277638 422.546406 419.792936 417.017035 414.218510 411.397169 408.552821 405.685276 402.794344 399.879835 396.941564 393.979343 390.992990 387.982321 384.947157 381.887320 378.802635 375.692931 372.558038 369.397792 366.212031 363.000599 359.763343 356.500116 353.210776 349.895187 346.553219 343.184749 339.789663 336.367851 332.919214
762.558658 762.041444 761.522002 761.000319 760.476379 759.950168 759.421672 758.890876 758.357766 757.822325 757.284540 756.744395 756.201875 755.656964 755.109646 754.559907 754.007730 753.453099 752.895998 752.336411 751.774321 751.209712 750.642568 750.072870 749.500603 748.925749 748.348292 747.768212 747.185494 746.600119 746.012069 745.421327 744.827874 744.231691 743.632761 743.031064 742.426582 741.819296 741.209186 740.596233 739.980418 739.361721 738.740121 738.115600 737.488136 736.857709 736.224299 735.587885 734.948445 734.305959 733.660406 733.011763 732.360008 731.705121 731.047079 730.385858 729.721438 729.053794 728.382905 727.708746 727.031294 726.350526 725.666418 724.978945 724.288084 723.593810 722.896097 722.194921 721.490257 720.782080 720.070362 719.355079 718.636205 717.913712 717.187574 716.457764 715.724255 714.987019 714.246028 713.501255 712.752671 712.000248 711.243956 710.483766 709.719650 708.951576 708.179517 707.403440 706.623315 705.839112 705.050799 704.258345 703.461717 702.660884 701.855814 701.046473 700.232828 699.414846 698.592492 697.765734 696.934537 696.098864 695.258683 694.413956 693.564648 692.710723 691.852143 690.988873 690.120875 689.248111 688.370542 687.488131 686.600838 685.708624 684.811449 683.909273 683.002056 682.089756 681.172332 680.249742 679.321945 678.388896 677.450554 676.506874 675.557812 674.603324 673.643364 672.677887 671.706848 670.730199 669.747894 668.759886 667.766125 666.766564 665.761154 664.749845 663.732587 662.709329 661.680021 660.644610 659.603045 658.555271 657.501237 656.440888 655.374170 635.816402 626.569225 619.383795 613.247054 607.780238 602.791989 598.169608 593.840105 589.753038 585.871858 582.169117 578.623619 575.218629 571.940694 568.778839 565.724010 562.768661 559.906456 557.132047 554.440903 551.829171 549.293580 546.831355 544.440148 542.117995 539.863263 537.674623 535.551019 533.491648 531.495938 529.563542 527.694320 525.888335 524.145849 522.467321 520.853404 519.304952 517.823022 516.408885 515.064032 513.790192 512.589345 511.463744 510.415942 509.448821 508.565626 507.770015 507.066108 506.458556 505.952622 505.554276 505.270326 505.108569 505.077995 505.189039 505.453924 505.887109 506.505903 507.331322 508.389314 509.712576 511.343352 513.337950 515.774500 518.767347 522.496801 527.280896 533.798359 544.275981 560.841247 559.136000 557.418310 555.688052 553.945100 552.189328 550.420607 548.638809 546.843800 545.035450 543.213624 541.378186 539.528999 537.665925 535.788824 533.897554 531.991972 530.071934 528.137293 526.187901 524.223610 522.244269 520.249726 518.239825 516.214413 514.173331 512.116422 510.043525 507.954478 505.849118 503.727280 501.588798 499.433502 497.261225 495.071794 492.865036 490.640778 488.398844 486.139056 483.861235 481.565202 479.250774 476.917768 474.566000 472.195284 469.805432 467.396256 464.967566 462.519171 460.050878 457.562493 455.053823 452.524672 449.974842 447.404137 444.812358 442.199305 439.564780 436.908580 434.230506 431.530356 428.807928 426.063019 423.295429 420.504953 417.691392 414.854543 411.994204 409.110175 406.202256 403.270249 400.313955 397.333178 394.327723 391.297397 388.242010 385.161371 382.055295 378.923599 375.766102 372.582627 369.373002 366.137058 362.874629 359.585558 356.269689 352.926875 349.556974 346.159850 342.735375 339.283429
765.970753 765.460125 764.947294 764.432244 763.914961 763.395433 762.873643 762.349577 761.823221 761.294560 760.763579 760.230262 759.694595 759.156563 758.616149 758.073338 757.528115 756.980464 756.430368 755.877812 755.322779 754.765253 754.205217 753.642655 753.077549 752.509883 751.939640 751.366802 750.791351 750.213271 749.632544 749.049151 748.463074 747.874296 747.282798 746.688561 746.091566 745.491795 744.889229 744.283848 743.675633 743.064565 742.450623 741.833788 741.214039 740.591357 739.965721 739.337109 738.705502 738.070879 737.433217 736.792496 736.148693 735.501788 734.851758 734.198581 733.542234 732.882694 732.219940 731.553947 730.884693 730.212154 729.536306 728.857125 728.174587 727.488668 726.799343 726.106587 725.410375 724.710681 724.007481 723.300748 722.590456 721.876578 721.159089 720.437962 719.713168 718.984681 718.252474 717.516518 716.776785 716.033247 715.285874 714.534639 713.779511 713.020462 712.257460 711.490477 710.719481 709.944442 709.165329 708.382110 707.594753 706.803228 706.007500 705.207538 704.403309 703.594779 702.781915 701.964683 701.143048 700.316975 699.486430 698.651378 697.811781 696.967606 696.118814 695.265369 694.407233 693.544370 692.676741 691.804307 690.927031 690.044872 689.157791 688.265748 687.368702 686.466614 685.559440 684.647140 683.729672 682.806992 681.879058 680.945826 680.007253 679.063293 678.113902 677.159035 676.198645 675.232686 674.261111 673.283873 672.300925 671.312216 670.317700 669.317325 668.311043 667.298802 666.280551 665.256240 664.225815 663.189224 662.146413 661.097329 648.368087 636.626097 628.636141 622.077362 616.346664 611.177121 606.422539 601.992537 597.826640 593.882061 590.127248 586.538175 583.096088 579.786046 576.595951 573.515877 570.537592 567.654207 564.859921 562.149824 559.519747 556.966140 554.485990 552.076737 549.736223 547.462641 545.254497 543.110581 541.029943 539.011869 537.055868 535.161660 533.329168 531.558507 529.849985 528.204100 526.621542 525.103192 523.650133 522.263657 520.945272 519.696719 518.519989 517.417343 516.391335 515.444848 514.581125 513.803818 513.117039 512.525427 512.034231 511.649403 511.377729 511.226986 511.206132 511.325577 511.597511 512.036359 512.659398 513.487614 514.546937 515.870065 517.499288 519.491048 521.923792 524.912607 528.639585 533.427638 539.972842 550.626329 566.397601 564.706146 563.002260 561.285818 559.556695 557.814760 556.059885 554.291939 552.510788 550.716299 548.908335 547.086760 545.251434 543.402218 541.538968 539.661543 537.769796 535.863581 533.942750 532.007152 530.056637 528.091050 526.110238 524.114043 522.102308 520.074872 518.031574 515.972252 513.896739 511.804870 509.696477 507.571388 505.429434 503.270441 501.094233 498.900635 496.689467 494.460551 492.213704 489.948743 487.665484 485.363740 483.043324 480.704044 478.345712 475.968133 473.571114 471.154459 468.717972 466.261454 463.784704 461.287523 458.769708 456.231056 453.671361 451.090419 448.488022 445.863963 443.218033 440.550023 437.859724 435.146923 432.411412 429.652977 426.871407 424.066491 421.238015 418.385770 415.509542 412.609121 409.684296 406.734858 403.760598 400.761308 397.736782 394.686816 391.611206 388.509753 385.382258 382.228525 379.048363 375.841582 372.607996 369.347424 366.059689 362.744619 359.402047 356.031812 352.633759 349.207738 345.753611
769.392830 768.888838 768.382667 767.874302 767.363729 766.850933 766.335901 765.818618 765.299070 764.777241 764.253117 763.726683 763.197924 762.666825 762.133370 761.597544 761.059331 760.518716 759.975682 759.430214 758.882296 758.331911 757.779043 757.223674 756.665790 756.105372 755.542404 754.976868 754.408747 753.838024 753.264681 752.688700 752.110064 751.528754 750.944752 750.358039 749.768597 749.176408 748.581452 747.983710 747.383163 746.779791 746.173576 745.564496 744.952533 744.337665 743.719874 743.099137 742.475434 741.848745 741.219049 740.586323 739.950547 739.311699 738.669757 738.024699 737.376503 736.725145 736.070604 735.412857 734.751879 734.087649 733.420142 732.749334 732.075202 731.397721 730.716867 730.032615 729.344940 728.653817 727.959220 727.261124 726.559503 725.854330 725.145579 724.433224 723.717237 722.997592 722.274261 721.547215 720.816427 720.081870 719.343513 718.601329 717.855288 717.105360 716.351517 715.593727 714.831962 714.066189 713.296379 712.522499 711.744519 710.962406 710.176129 709.385654 708.590950 707.791982 706.988718 706.181123 705.369163 704.552805 703.732012 702.906750 702.076982 701.242674 700.403789 699.560289 698.712139 697.859300 697.001734 696.139404 695.272270 694.400294 693.523435 692.641655 691.754913 690.863168 689.966379 689.064504 688.157501 687.245328 686.327942 685.405299 684.477356 683.544068 682.605391 681.661279 680.711686 679.756566 678.795872 677.829557 676.857574 675.879874 674.896407 673.907126 672.911979 671.910916 670.903887 669.890840 668.871722 667.846481 666.815064 665.777417 647.565858 638.248182 631.110874 625.046499 619.658138 614.748877 610.203951 605.949543 601.934881 598.123305 594.487357 591.005875 587.662175 584.442860 581.337010 578.335616 575.431173 572.617379 569.888910 567.241248 564.670551 562.173547 559.747454 557.389911 555.098929 552.872847 550.710300 548.610187 546.571652 544.594065 542.677009 540.820266 539.023812 537.287814 535.612619 533.998761 532.446959 530.958123 529.533356 528.173966 526.881474 525.657633 524.504439 523.424155 522.419336 521.492860 520.647964 519.888289 519.217933 518.641519 518.164272 517.792122 517.531826 517.391125 517.378940 517.505638 517.783358 518.226474 518.852203 519.681468 520.740134 522.060844 523.685844 525.671588 528.096647 531.076522 534.794487 539.577043 546.134076 556.926040 571.996230 570.318954 568.629267 566.927042 565.212150 563.484462 561.743847 559.990172 558.223303 556.443104 554.649438 552.842167 551.021148 549.186241 547.337302 545.474185 543.596743 541.704827 539.798288 537.876972 535.940726 533.989395 532.022821 530.040846 528.043308 526.030045 524.000893 521.955686 519.894255 517.816432 515.722046 513.610922 511.482886 509.337762 507.175370 504.995530 502.798061 500.582779 498.349497 496.098029 493.828184 491.539773 489.232603 486.906478 484.561204 482.196582 479.812413 477.408495 474.984627 472.540603 470.076219 467.591266 465.085536 462.558818 460.010902 457.441575 454.850621 452.237827 449.602975 446.945849 444.266229 441.563897 438.838632 436.090214 433.318422 430.523033 427.703826 424.860578 421.993067 419.101071 416.184368 413.242735 410.275953 407.283800 404.266058 401.222509 398.152935 395.057123 391.934859 388.785932 385.610134 382.407261 379.177109 375.919481 372.634181 369.321019 365.979809 362.610371 359.212530 355.786117 352.330970
772.824869 772.327565 771.828104 771.326474 770.822661 770.316651 769.808429 769.297981 768.785293 768.270350 767.753137 767.233639 766.711843 766.187731 765.661290 765.132504 764.601358 764.067835 763.531921 762.993598 762.452852 761.909666 761.364024 760.815909 760.265305 759.712195 759.156563 758.598390 758.037660 757.474356 756.908460 756.339954 755.768821 755.195043 754.618602 754.039479 753.457655 752.873113 752.285834 751.695798 751.102986 750.507380 749.908959 749.307704 748.703595 748.096613 747.486736 746.873946 746.258220 745.639538 745.017880 744.393224 743.765549 743.134833 742.501055 741.864192 741.224223 740.581125 739.934875 739.285451 738.632830 737.976989 737.317904 736.655551 735.989907 735.320947 734.648648 733.972984 733.293931 732.611464 731.925557 731.236185 730.543323 729.846943 729.147021 728.443529 727.736440 727.025728 726.311365 725.593323 724.871576 724.146094 723.416849 722.683812 721.946956 721.206249 720.461663 719.713168 718.960734 718.204330 717.443925 716.679489 715.910990 715.138397 714.361676 713.580797 712.795726 712.006431 711.212877 710.415032 709.612861 708.806330 707.995404 707.180049 706.360228 705.535906 704.707047 703.873613 703.035569 702.192877 701.345499 700.493397 699.636533 698.774867 697.908361 697.036974 696.160666 695.279397 694.393126 693.501811 692.605411 691.703883 690.797184 689.885271 688.968101 688.045628 687.117809 686.184598 685.245950 684.301819 683.352157 682.396918 681.436054 680.469517 679.497258 678.519228 677.535377 676.545655 675.550010 674.548392 673.540749 672.527027 671.507174 660.702613 648.413289 640.415312 633.911446 628.252175 623.158624 618.480403 614.125420 610.032449 606.158375 602.471510 598.947791 595.568469 592.318630 589.186212 586.161324 583.235767 580.402679 577.656280 574.991675 572.404702 569.891815 567.449990 565.076658 562.769639 560.527100 558.347515 556.229633 554.172454 552.175210 550.237347 548.358514 546.538552 544.777486 543.075526 541.433056 539.850643 538.329032 536.869154 535.472131 534.139284 532.872145 531.672472 530.542263 529.483782 528.499579 527.592524 526.765844 526.023163 525.368561 524.806638 524.342592 523.982320 523.732541 523.600953 523.596430 523.729277 524.011573 524.457614 525.084533 525.913157 526.969245 528.285319 529.903504 531.880134 534.293713 537.259826 540.962315 545.729918 552.282482 563.170244 577.637192 575.974488 574.299396 572.611788 570.911535 569.198505 567.472567 565.733586 563.981426 562.215952 560.437023 558.644499 556.838238 555.018097 553.183929 551.335588 549.472924 547.595788 545.704026 543.797485 541.876008 539.939437 537.987614 536.020376 534.037561 532.039003 530.024536 527.993991 525.947196 523.883981 521.804169 519.707586 517.594052 515.463387 513.315410 511.149937 508.966782 506.765756 504.546671 502.309335 500.053554 497.779133 495.485875 493.173581 490.842048 488.491076 486.120459 483.729990 481.319461 478.888663 476.437383 473.965408 471.472523 468.958512 466.423154 463.866232 461.287523 458.686805 456.063854 453.418443 450.750347 448.059338 445.345186 442.607663 439.846536 437.061575 434.252547 431.419220 428.561361 425.678736 422.771112 419.838255 416.879933 413.895912 410.885960 407.849845 404.787338 401.698210 398.582231 395.439177 392.268824 389.070950 385.845337 382.591768 379.310031 375.999917 372.661222 369.293746 365.897294 362.471675 359.016707
776.266853 775.776284 775.283585 774.788742 774.291740 773.792567 773.291207 772.787646 772.281871 771.773866 771.263618 770.751111 770.236330 769.719262 769.199890 768.678199 768.154175 767.627801 767.099063 766.567943 766.034427 765.498499 764.960141 764.419339 763.876075 763.330333 762.782096 762.231347 761.678070 761.122246 760.563859 760.002892 759.439326 758.873143 758.304327 757.732858 757.158718 756.581889 756.002353 755.420089 754.835081 754.247307 753.656750 753.063389 752.467205 751.868177 751.266287 750.661513 750.053836 749.443234 748.829688 748.213175 747.593675 746.971166 746.345627 745.717036 745.085371 744.450609 743.812730 743.171709 742.527523 741.880151 741.229569 740.575752 739.918678 739.258323 738.594662 737.927670 737.257324 736.583599 735.906469 735.225909 734.541893 733.854395 733.163390 732.468851 731.770752 731.069064 730.363763 729.654819 728.942205 728.225894 727.505857 726.782066 726.054491 725.323104 724.587875 723.848775 723.105773 722.358840 721.607945 720.853056 720.094143 719.331175 718.564119 717.792943 717.017614 716.238101 715.454369 714.666385 713.874116 713.077527 712.276584 711.471251 710.661494 709.847276 709.028563 708.205316 707.377501 706.545079 705.708013 704.866264 704.019796 703.168568 702.312543 701.451679 700.585938 699.715278 698.839659 697.959040 697.073379 696.182634 695.286762 694.385719 693.479464 692.567950 691.651135 690.728972 689.801417 688.868423 687.929944 686.985933 686.036343 685.081124 684.120230 683.153610 682.181216 681.202996 680.218900 679.228877 678.232875 677.230841 676.222722 659.590048 650.106772 642.989156 636.983292 631.665330 626.829976 622.359193 618.177722 614.234114 610.491387 606.921936 603.504540 600.222500 597.062427 594.013420 591.066490 588.214153 585.450122 582.769086 580.166533 577.638623 575.182076 572.794099 570.472315 568.214709 566.019591 563.885557 561.811462 559.796401 557.839683 555.940826 554.099537 552.315711 550.589420 548.920909 547.310599 545.759083 544.267129 542.835686 541.465892 540.159077 538.916780 537.740762 536.633022 535.595816 534.631690 533.743500 532.934457 532.208167 531.568687 531.020585 530.569028 530.219874 529.979795 529.856438 529.858614 529.996559 530.282270 530.729949 531.356620 532.182980 533.234636 534.543936 536.152794 538.117307 540.515716 543.463360 547.144026 551.887309 558.418932 569.355281 583.320542 581.672804 580.012707 578.340121 576.654915 574.956958 573.246116 571.522254 569.785235 568.034921 566.271170 564.493842 562.702793 560.897876 559.078945 557.245852 555.398445 553.536571 551.660077 549.768807 547.862601 545.941301 544.004745 542.052769 540.085207 538.101892 536.102654 534.087323 532.055723 530.007682 527.943020 525.861558 523.763116 521.647509 519.514553 517.364060 515.195841 513.009703 510.805454 508.582898 506.341837 504.082071 501.803400 499.505618 497.188521 494.851900 492.495547 490.119248 487.722790 485.305958 482.868534 480.410299 477.931030 475.430506 472.908500 470.364786 467.799136 465.211319 462.601103 459.968256 457.312542 454.633726 451.931568 449.205831 446.456275 443.682659 440.884739 438.062274 435.215019 432.342731 429.445164 426.522074 423.573214 420.598340 417.597207 414.569569 411.515183 408.433805 405.325192 402.189105 399.025302 395.833547 392.613604 389.365240 386.088225 382.782331 379.447335 376.083018 372.689164 369.265562 365.812009
779.718760 779.234979 778.749091 778.261085 777.770946 777.278660 776.784214 776.287593 775.788783 775.287770 774.784539 774.279077 773.771367 773.261396 772.749148 772.234609 771.717762 771.198594 770.677088 770.153228 769.627000 769.098387 768.567373 768.033942 767.498077 766.959763 766.418982 765.875718 765.329954 764.781673 764.230858 763.677491 763.121555 762.563032 762.001904 761.438154 760.871763 760.302714 759.730986 759.156563 758.579424 757.999551 757.416926 756.831528 756.243337 755.652336 755.058502 754.461817 753.862260 753.259811 752.654449 752.046153 751.434902 750.820675 750.203451 749.583207 748.959923 748.333576 747.704144 747.071604 746.435935 745.797112 745.155112 744.509914 743.861492 743.209823 742.554884 741.896649 741.235096 740.570197 739.901930 739.230269 738.555187 737.876661 737.194663 736.509167 735.820148 735.127578 734.431430 733.731677 733.028292 732.321247 731.610514 730.896064 730.177869 729.455900 728.730127 728.000522 727.267055 726.529695 725.788411 725.043175 724.293953 723.540716 722.783430 722.022065 721.256589 720.486967 719.713168 718.935158 718.152904 717.366371 716.575525 715.780331 714.980755 714.176760 713.368312 712.555373 711.737908 710.915879 710.089249 709.257980 708.422034 707.581373 706.735957 705.885747 705.030703 704.170786 703.305954 702.436166 701.561381 700.681556 699.796650 698.906619 698.011421 697.111010 696.205343 695.294375 694.378061 693.456355 692.529210 691.596580 690.658417 689.714673 688.765301 687.810251 686.849473 685.882918 684.910534 683.932272 682.948078 681.957901 673.789381 660.414565 652.356065 645.886505 640.287710 635.263539 630.657443 626.374708 622.352881 618.548235 614.928772 611.470274 608.153919 604.964763 601.890738 598.921956 596.050227 593.268700 590.571602 587.954041 585.411853 582.941488 580.539912 578.204537 575.933162 573.723926 571.575268 569.485897 567.454765 565.481052 563.564141 561.703612 559.899229 558.150934 556.458839 554.823225 553.244542 551.723407 550.260608 548.857110 547.514061 546.232798 545.014866 543.862023 542.776264 541.759840 540.815283 539.945435 539.153487 538.443021 537.818065 537.283155 536.843416 536.504660 536.273508 536.157543 536.165505 536.307548 536.595570 537.043660 537.668706 538.491247 539.536697 540.837167 542.434285 544.383784 546.763454 549.688063 553.340723 558.050495 564.544756 575.479142 589.046328 587.413953 585.769251 584.112094 582.442348 580.759881 579.064559 577.356244 575.634799 573.900085 572.151958 570.390276 568.614894 566.825665 565.022441 563.205070 561.373400 559.527278 557.666546 555.791047 553.900621 551.995106 550.074338 548.138151 546.186378 544.218847 542.235389 540.235828 538.219989 536.187693 534.138761 532.073009 529.990255 527.890310 525.772987 523.638095 521.485440 519.314828 517.126061 514.918940 512.693263 510.448826 508.185424 505.902848 503.600887 501.279330 498.937960 496.576562 494.194917 491.792802 489.369996 486.926272 484.461402 481.975158 479.467308 476.937618 474.385853 471.811775 469.215145 466.595722 463.953263 461.287523 458.598257 455.885216 453.148152 450.386813 447.600947 444.790303 441.954624 439.093657 436.207145 433.294831 430.356459 427.391769 424.400505 421.382408 418.337220 415.264685 412.164544 409.036542 405.880423 402.695934 399.482822 396.240838 392.969733 389.669261 386.339181 382.979253 379.589242 376.168916 372.718050
783.180572 782.703627 782.224602 781.743483 781.260257 780.774911 780.287430 779.797801 779.306009 778.812041 778.315881 777.817516 777.316932 776.814112 776.309044 775.801711 775.292098 774.780191 774.265974 773.749432 773.230549 772.709309 772.185697 771.659696 771.131290 770.600463 770.067199 769.531480 768.993291 768.452614 767.909432 767.363729 766.815486 766.264686 765.711312 765.155345 764.596769 764.035563 763.471712 762.905194 762.335993 761.764089 761.189464 760.612097 760.031971 759.449064 758.863358 758.274833 757.683468 757.089244 756.492139 755.892133 755.289206 754.683336 754.074502 753.462683 752.847856 752.230001 751.609094 750.985114 750.358039 749.727845 749.094510 748.458010 747.818323 747.175424 746.529290 745.879896 745.227219 744.571234 743.911916 743.249241 742.583182 741.913714 741.240813 740.564451 739.884603 739.201241 738.514340 737.823872 737.129809 736.432125 735.730792 735.025780 734.317063 733.604610 732.888394 732.168384 731.444552 730.716867 729.985299 729.249818 728.510393 727.766992 727.019585 726.268139 725.512623 724.753003 723.989248 723.221323 722.449197 721.672834 720.892201 720.107262 719.317984 718.524331 717.726268 716.923758 716.116765 715.305252 714.489182 713.668517 712.843221 712.013253 711.178576 710.339150 709.494936 708.645893 707.791982 706.933161 706.069389 705.200624 704.326823 703.447945 702.563946 701.674782 700.780409 699.880783 698.975858 698.065589 697.149929 696.228832 695.302251 694.370139 693.432446 692.489124 691.540124 690.585396 689.624889 688.658553 687.686336 686.708185 671.933569 662.147524 655.015387 649.052346 643.795931 639.028990 634.628792 630.517938 626.643919 622.969201 619.465883 616.112584 612.892523 609.792269 606.800903 603.909431 601.110366 598.397422 595.765287 593.209447 590.726054 588.311817 585.963929 583.679988 581.457957 579.296111 577.193011 575.147467 573.158523 571.225434 569.347652 567.524816 565.756738 564.043404 562.384963 560.781727 559.234172 557.742935 556.308821 554.932808 553.616051 552.359893 551.165877 550.035760 548.971529 547.975424 547.049962 546.197966 545.422605 544.727432 544.116441 543.594130 543.165578 542.836546 542.613592 542.504228 542.517115 542.662308 542.951595 543.398931 544.021046 544.838288 545.875837 547.165514 548.748579 550.680288 553.037788 555.934963 559.553642 564.220970 570.661735 581.541849 594.814591 593.197978 591.569077 589.927757 588.273885 586.607329 584.927951 583.235615 581.530181 579.811508 578.079454 576.333873 574.574619 572.801544 571.014497 569.213328 567.397881 565.568000 563.723529 561.864307 559.990172 558.100960 556.196506 554.276641 552.341196 550.389998 548.422873 546.439645 544.440136 542.424164 540.391547 538.342099 536.275634 534.191961 532.090890 529.972225 527.835771 525.681329 523.508698 521.317675 519.108055 516.879628 514.632186 512.365515 510.079401 507.773627 505.447972 503.102215 500.736133 498.349497 495.942080 493.513650 491.063973 488.592815 486.099936 483.585098 481.048057 478.488569 475.906387 473.301263 470.672945 468.021182 465.345719 462.646298 459.922662 457.174551 454.401704 451.603856 448.780744 445.932101 443.057660 440.157154 437.230313 434.276866 431.296544 428.289075 425.254188 422.191610 419.101071 415.982299 412.835024 409.658976 406.453885 403.219485 399.955509 396.661694 393.337779 389.983504 386.598615 383.182858 379.735987
786.652268 786.182209 785.710096 785.235915 784.759654 784.281298 783.800835 783.318249 782.833528 782.346657 781.857622 781.366409 780.873003 780.377390 779.879555 779.379484 778.877161 778.372572 777.865701 777.356533 776.845052 776.331243 775.815091 775.296579 774.775691 774.252411 773.726723 773.198611 772.668058 772.135047 771.599561 771.061583 770.521096 769.978083 769.432526 768.884408 768.333710 767.780415 767.224505 766.665961 766.104764 765.540897 764.974340 764.405074 763.833080 763.258339 762.680831 762.100537 761.517436 760.931508 760.342734 759.751092 759.156563 758.559124 757.958756 757.355436 756.749144 756.139857 755.527554 754.912213 754.293811 753.672326 753.047736 752.420017 751.789145 751.155099 750.517853 749.877385 749.233669 748.586683 747.936401 747.282798 746.625849 745.965530 745.301814 744.634676 743.964089 743.290028 742.612466 741.931376 741.246731 740.558503 739.866665 739.171188 738.472046 737.769208 737.062647 736.352334 735.638238 734.920330 734.198581 733.472959 732.743435 732.009977 731.272555 730.531136 729.785689 729.036181 728.282580 727.524854 726.762968 725.996889 725.226583 724.452017 723.673154 722.889961 722.102402 721.310441 720.514042 719.713168 718.907783 718.097848 717.283327 716.464182 715.640373 714.811861 713.978608 713.140574 712.297717 711.449999 710.597376 709.739809 708.877254 708.009669 707.137012 706.259239 705.376305 704.488167 703.594779 702.696097 701.792074 700.882664 699.967819 699.047493 698.121637 697.190203 696.253142 695.310403 694.361938 693.407694 692.447620 689.338074 672.646396 664.458133 657.998517 652.447845 647.485773 642.947190 638.733703 634.781078 631.044667 627.491970 624.098487 620.845237 617.717187 614.702218 611.790416 608.973574 606.244833 603.598412 601.029412 598.533661 596.107595 593.748165 591.452763 589.219163 587.045473 584.930099 582.871708 580.869207 578.921721 577.028577 575.189288 573.403545 571.671209 569.992301 568.367005 566.795661 565.278766 563.816975 562.411108 561.062151 559.771264 558.539792 557.369276 556.261466 555.218340 554.242124 553.335316 552.500719 551.741471 551.061096 550.463549 549.953284 549.535331 549.215389 548.999951 548.896448 548.913448 549.060901 549.350466 549.795948 550.413895 551.224436 552.252478 553.529497 555.096310 557.007580 559.339638 562.205171 565.784140 570.400432 576.772078 587.545695 600.625369 599.024919 597.412224 595.787153 594.149573 592.499350 590.836345 589.160421 587.471437 585.769251 584.053720 582.324697 580.582034 578.825582 577.055190 575.270704 573.471968 571.658825 569.831116 567.988679 566.131351 564.258965 562.371354 560.468349 558.549776 556.615462 554.665231 552.698904 550.716299 548.717234 546.701523 544.668978 542.619410 540.552626 538.468431 536.366628 534.247017 532.109396 529.953562 527.779307 525.586421 523.374694 521.143910 518.893854 516.624305 514.335043 512.025842 509.696477 507.346717 504.976331 502.585085 500.172743 497.739064 495.283807 492.806728 490.307580 487.786115 485.242080 482.675223 480.085286 477.472011 474.835138 472.174404 469.489544 466.780290 464.046374 461.287523 458.503467 455.693928 452.858632 449.997299 447.109651 444.195407 441.254283 438.285998 435.290267 432.266804 429.215325 426.135543 423.027173 419.889928 416.723522 413.527670 410.302087 407.046491 403.760598 400.444129 397.096805 393.718351 390.308493 386.866962
790.133827 789.670704 789.205553 788.738361 788.269115 787.797801 787.324406 786.848917 786.371318 785.891597 785.409740 784.925732 784.439559 783.951207 783.460661 782.967906 782.472929 781.975713 781.476244 780.974507 780.470486 779.964167 779.455532 778.944568 778.431257 777.915584 777.397533 776.877088 776.354231 775.828947 775.301219 774.771029 774.238362 773.703199 773.165523 772.625318 772.082564 771.537245 770.989342 770.438838 769.885713 769.329950 768.771529 768.210433 767.646641 767.080135 766.510896 765.938903 765.364138 764.786579 764.206208 763.623004 763.036946 762.448013 761.856186 761.261442 760.663760 760.063119 759.459498 758.852874 758.243225 757.630529 757.014764 756.395906 755.773932 755.148821 754.520547 753.889088 753.254419 752.616516 751.975356 751.330913 750.683162 750.032079 749.377638 748.719814 748.058581 747.393912 746.725781 746.054162 745.379027 744.700351 744.018104 743.332260 742.642790 741.949666 741.252859 740.552341 739.848083 739.140055 738.428227 737.712569 736.993051 736.269642 735.542311 734.811027 734.075758 733.336472 732.593136 731.845719 731.094187 730.338506 729.578644 728.814565 728.046235 727.273621 726.496686 725.715394 724.929711 724.139599 723.345022 722.545944 721.742325 720.934129 720.121317 719.303851 718.481690 717.654797 716.823129 715.986649 715.145313 714.299081 713.447912 712.591762 711.730589 710.864350 709.993001 709.116498 708.234797 707.347851 706.455616 705.558045 704.655091 703.746708 702.832847 701.913460 700.988498 700.057912 699.121652 698.179666 697.231905 684.689050 674.377452 667.187622 661.249069 656.044227 651.339627 647.006117 642.963340 639.157290 635.549622 632.111975 628.822705 625.664873 622.624954 619.691971 616.856896 614.112219 611.451640 608.869832 606.362268 603.925085 601.554977 599.249115 597.005074 594.820789 592.694502 590.624735 588.610256 586.650060 584.743347 582.889509 581.088116 579.338905 577.641780 575.996799 574.404172 572.864264 571.377592 569.944827 568.566797 567.244496 565.979087 564.771914 563.624511 562.538622 561.516210 560.559484 559.670923 558.853302 558.109731 557.443695 556.859109 556.360379 555.952476 555.641038 555.432478 555.334145 555.354502 555.503381 555.792300 556.234896 556.847514 557.650034 558.667053 559.929653 561.478133 563.366459 565.669968 568.499865 572.033678 576.590758 582.878385 593.495282 606.478691 604.894806 603.298727 601.690319 600.069451 598.435985 596.789783 595.130708 593.458616 591.773366 590.074811 588.362806 586.637201 584.897845 583.144586 581.377269 579.595736 577.799830 575.989389 574.164249 572.324247 570.469214 568.598981 566.713375 564.812224 562.895351 560.962578 559.013722 557.048603 555.067033 553.068824 551.053788 549.021730 546.972456 544.905768 542.821466 540.719348 538.599207 536.460836 534.304026 532.128563 529.934231 527.720813 525.488087 523.235831 520.963817 518.671819 516.359603 514.026936 511.673581 509.299299 506.903848 504.486982 502.048453 499.588013 497.105408 494.600381 492.072676 489.522032 486.948184 484.350867 481.729812 479.084749 476.415404 473.721501 471.002762 468.258907 465.489652 462.694714 459.873804 457.026635 454.152916 451.252354 448.324655 445.369523 442.386662 439.375772 436.336556 433.268712 430.171939 427.045937 423.890403 420.705036 417.489535 414.243597 410.966923 407.659214 404.320172 400.949501 397.546907 394.112098
793.625228 793.169090 792.710952 792.250799 791.788618 791.324398 790.858123 790.389781 789.919358 789.446840 788.972213 788.495464 788.016577 787.535540 787.052338 786.566955 786.079378 785.589592 785.097582 784.603332 784.106829 783.608056 783.106998 782.603640 782.097965 781.589958 781.079604 780.566886 780.051787 779.534291 779.014383 778.492044 777.967258 777.440009 776.910278 776.378050 775.843305 775.306027 774.766198 774.223800 773.678814 773.131222 772.581006 772.028148 771.472628 770.914427 770.353526 769.789906 769.223548 768.654431 768.082536 767.507842 766.930329 766.349977 765.766766 765.180673 764.591679 763.999761 763.404899 762.807070 762.206253 761.602426 760.995566 760.385650 759.772657 759.156563 758.537344 757.914977 757.289440 756.660707 756.028754 755.393558 754.755093 754.113335 753.468258 752.819838 752.168048 751.512862 750.854255 750.192201 749.526671 748.857640 748.185081 747.508965 746.829265 746.145953 745.459000 744.768379 744.074059 743.376012 742.674208 741.968618 741.259211 740.545956 739.828823 739.107782 738.382799 737.653845 736.920886 736.183890 735.442824 734.697656 733.948351 733.194876 732.437197 731.675279 730.909087 730.138586 729.363740 728.584514 727.800870 727.012772 726.220182 725.423064 724.621378 723.815087 723.004151 722.188531 721.368187 720.543080 719.713168 718.878410 718.038766 717.194192 716.344646 715.490085 714.630466 713.765746 712.895878 712.020819 711.140524 710.254945 709.364037 708.467752 707.566044 706.658863 705.746162 704.827891 703.904001 702.974440 702.039158 685.140118 676.724040 670.244421 664.727536 659.819358 655.343171 651.195616 647.310042 643.640518 640.153828 636.825054 633.634962 630.568365 627.613049 624.759037 621.998082 619.323296 616.728877 614.209907 611.762196 609.382161 607.066732 604.813278 602.619545 600.483611 598.403845 596.378873 594.407558 592.488974 590.622391 588.807259 587.043199 585.329996 583.667587 582.056062 580.495659 578.986764 577.529909 576.125777 574.775205 573.479191 572.238897 571.055663 569.931018 568.866692 567.864634 566.927033 566.056344 565.255312 564.527014 563.874897 563.302828 562.815159 562.416803 562.113324 561.911057 561.817252 561.840265 561.989796 562.277208 562.715956 563.322160 564.115425 565.120002 566.366530 567.894723 569.757745 572.029785 574.820283 578.303812 582.793982 588.983609 599.397330 612.374581 610.807668 609.228614 607.637286 606.033550 604.417269 602.788304 601.146516 599.491761 597.823897 596.142776 594.448252 592.740173 591.018389 589.282745 587.533085 585.769251 583.991084 582.198419 580.391094 578.568941 576.731791 574.879473 573.011814 571.128638 569.229766 567.315019 565.384213 563.437162 561.473681 559.493577 557.496659 555.482730 553.451594 551.403050 549.336895 547.252924 545.150927 543.030695 540.892013 538.734666 536.558434 534.363095 532.148424 529.914195 527.660177 525.386137 523.091839 520.777044 518.441511 516.084994 513.707248 511.308020 508.887059 506.444107 503.978907 501.491196 498.980709 496.447178 493.890335 491.309904 488.705609 486.077173 483.424314 480.746746 478.044184 475.316337 472.562913 469.783618 466.978155 464.146224 461.287523 458.401750 455.488597 452.547757 449.578920 446.581775 443.556009 440.501308 437.417356 434.303837 431.160432 427.986825 424.782696 421.547728 418.281601 414.983998 411.654602 408.293097 404.899167 401.472501
797.126449 796.677346 796.226270 795.773206 795.318142 794.861066 794.401963 793.940820 793.477624 793.012361 792.545018 792.075581 791.604035 791.130367 790.654562 790.176607 789.696486 789.214185 788.729690 788.242985 787.754056 787.262887 786.769464 786.273770 785.775790 785.275510 784.772912 784.267981 783.760700 783.251055 782.739027 782.224602 781.707761 781.188488 780.666767 780.142579 779.615909 779.086737 778.555047 778.020821 777.484041 776.944688 776.402745 775.858193 775.311014 774.761188 774.208696 773.653520 773.095640 772.535036 771.971689 771.405579 770.836686 770.264989 769.690468 769.113103 768.532872 767.949754 767.363729 766.774774 766.182868 765.587988 764.990114 764.389222 763.785290 763.178296 762.568215 761.955026 761.338703 760.719225 760.096566 759.470703 758.841612 758.209266 757.573643 756.934716 756.292460 755.646850 754.997859 754.345462 753.689632 753.030342 752.367565 751.701274 751.031441 750.358039 749.681039 749.000414 748.316134 747.628170 746.936493 746.241074 745.541883 744.838888 744.132061 743.421369 742.706782 741.988269 741.265797 740.539334 739.808847 739.074305 738.335673 737.592918 736.846007 736.094903 735.339575 734.579985 733.816098 733.047880 732.275293 731.498301 730.716867 729.930954 729.140523 728.345537 727.545957 726.741744 725.932859 725.119260 724.300909 723.477764 722.649783 721.816926 720.979150 720.136411 719.288668 718.435876 717.577991 716.714969 715.846764 714.973331 714.094623 713.210593 712.321195 711.426381 710.526102 709.620308 708.708952 707.791982 698.084956 686.810780 679.505827 673.569597 668.404804 663.755693 659.484520 655.506990 651.767085 648.225352 644.852795 641.627382 638.531938 635.552787 632.678856 629.901049 627.211814 624.604814 622.074699 619.616917 617.227584 614.903371 612.641423 610.439291 608.294877 606.206390 604.172315 602.191377 600.262522 598.384899 596.557841 594.780852 593.053601 591.375911 589.747755 588.169249 586.640656 585.162378 583.734962 582.359100 581.035636 579.765566 578.550054 577.390431 576.288217 575.245127 574.263094 573.344283 572.491123 571.706328 570.992936 570.354352 569.794394 569.317356 568.928085 568.632069 568.435554 568.345690 568.370712 568.520180 568.805292 569.239300 569.838084 570.620946 571.611761 572.840679 574.346763 576.182281 578.420122 581.167709 584.596168 589.012271 595.090995 605.260291 618.313057 616.763522 615.201907 613.628077 612.041897 610.443231 608.831938 607.207878 605.570907 603.920882 602.257655 600.581076 598.890997 597.187262 595.469719 593.738208 591.992572 590.232648 588.458273 586.669281 584.865504 583.046772 581.212912 579.363748 577.499103 575.618798 573.722650 571.810475 569.882084 567.937289 565.975896 563.997711 562.002536 559.990172 557.960414 555.913058 553.847894 551.764713 549.663300 547.543437 545.404906 543.247485 541.070947 538.875064 536.659605 534.424336 532.169020 529.893416 527.597281 525.280369 522.942430 520.583212 518.202459 515.799913 513.375312 510.928391 508.458882 505.966513 503.451012 500.912100 498.349497 495.762919 493.152081 490.516692 487.856459 485.171088 482.460280 479.723732 476.961142 474.172202 471.356602 468.514030 465.644171 462.746707 459.821319 456.867684 453.885478 450.874375 447.834046 444.764162 441.664391 438.534400 435.373855 432.182421 428.959762 425.705541 422.419423 419.101071 415.750149 412.366321 408.949252
