nCols  308
nRows  28
xllcorner  1390
yllcorner -4505
cellsize  5
nodata_value -9999.00
568.221614 567.390705 566.556786 565.719841 564.879856 564.036815 563.190703 562.341505 561.489206 560.633789 559.775240 558.913542 558.048680 557.180638 556.309400 555.434950 554.557272 553.676349 552.792166 551.904705 551.013952 550.119887 549.222497 548.321762 547.417667 546.510194 545.599327 544.685049 543.767341 542.846188 541.921570 540.993472 540.061874 539.126760 538.188112 537.245912 536.300141 535.350782 534.397816 533.441225 532.480991 531.517096 530.549520 529.578244 528.603251 527.624521 526.642036 525.655775 524.665720 523.671852 522.674151 521.672598 520.667173 519.657856 518.644627 517.627468 516.606357 515.581275 514.552201 513.519114 512.481996 511.440825 510.395580 509.346241 508.292786 507.235196 506.173449 505.107523 504.037399 502.963053 501.884465 500.801614 499.714477 498.623033 497.527261 496.427137 495.322641 494.213750 493.100441 491.982693 490.860483 489.733788 488.602586 487.466854 486.326570 485.181710 484.032251 482.878171 481.719446 480.556052 479.387967 478.215167 477.037628 475.855327 474.668240 473.476343 472.279612 471.078023 469.871553 468.660176 467.443869 466.222607 464.996366 463.765122 462.528849 461.287523 460.041120 458.789615 457.532982 456.271197 455.004235 453.732071 452.454679 451.172034 449.884112 448.590887 447.292332 445.988424 444.679137 443.364445 442.044322 440.718742 439.387681 438.051113 436.709011 435.361351 434.008105 432.649249 431.284757 429.914603 428.538760 427.157204 425.769907 424.376846 422.977992 421.573321 420.162807 418.746424 417.324146 415.895947 414.461801 413.021684 411.575568 410.123429 408.665241 407.200978 405.730615 404.254127 402.771487 401.282672 399.787655 398.286412 396.778917 395.265146 393.745075 392.218678 390.685931 389.146810 387.601290 386.049348 384.490959 382.926101 381.354749 379.776880 378.192472 376.601500 375.003943 373.399779 371.788985 370.171538 368.547419 366.916604 365.279074 363.634807 361.983784 360.325983 358.661386 356.989973 355.311725 353.626623 351.934650 350.235788 348.530018 346.817326 345.097693 343.371105 341.637546 339.897001 338.149457 336.394899 334.633314 332.864690 331.089015 329.306278 327.516469 325.719577 323.915594 322.104511 320.286321 318.461018 316.628594 314.789047 312.942370 311.088561 309.227618 307.359539 305.484325 303.601975 301.712492 299.815879 297.912139 296.001278 294.083302 292.158220 290.226039 288.286770 286.340426 284.387018 282.426561 280.459072 278.484567 276.503067 274.514590 272.519161 270.516802 268.507540 266.491402 264.468418 262.438619 260.402038 258.358712 256.308677 254.251972 252.188640 250.118726 248.042274 245.959334 243.869957 241.774198 239.672111 237.563757 235.449196 233.328493 231.201717 229.068936 226.930224 224.785658 222.635317 220.479284 218.317645 216.150490 213.977912 211.800008 209.616878 207.428626 205.235360 203.037194 200.834242 198.626625 196.414467 194.197899 191.977053 189.752067 187.523085 185.290253 183.053725 180.813658 178.570215 176.323564 174.073878 171.821337 169.566125 167.308433 165.048458 162.786401 160.522471 158.256883 155.989859 153.721626 151.452420 149.182482 146.912060 144.641411 142.370797 140.100489 137.830765 135.561911 133.294221 131.027997 128.763548 126.501194 124.241262 121.984086 119.730012 117.479393 115.232593 112.989982 110.751943 108.518866 106.291153 104.069215 101.853473 99.644357 97.442311 95.247785 93.061244 90.883162 88.714022
570.986018 570.158568 569.328111 568.494630 567.658110 566.818537 565.975896 565.130170 564.281344 563.429403 562.574332 561.716113 560.854731 559.990172 559.122417 558.251452 557.377260 556.499825 555.619130 554.735158 553.847894 552.957321 552.063422 551.166179 550.265576 549.361597 548.454223 547.543437 546.629223 545.711562 544.790438 543.865832 542.937726 542.006104 541.070947 540.132236 539.189954 538.244083 537.294604 536.341499 535.384749 534.424336 533.460241 532.492444 531.520928 530.545673 529.566659 528.583868 527.597281 526.606877 525.612638 524.614543 523.612573 522.606707 521.596927 520.583212 519.565541 518.543895 517.518253 516.488594 515.454898 514.417144 513.375312 512.329380 511.279328 510.225133 509.166776 508.104235 507.037488 505.966513 504.891290 503.811796 502.728010 501.639909 500.547471 499.450674 498.349497 497.243916 496.133909 495.019454 493.900527 492.777107 491.649169 490.516692 489.379651 488.238025 487.091788 485.940919 484.785394 483.625189 482.460280 481.290643 480.116255 478.937092 477.753129 476.564343 475.370708 474.172202 472.968799 471.760475 470.547205 469.328964 468.105728 466.877472 465.644171 464.405799 463.162333 461.913745 460.660012 459.401108 458.137007 456.867684 455.593113 454.313269 453.028126 451.737658 450.441839 449.140644 447.834046 446.522020 445.204539 443.881577 442.553109 441.219107 439.879546 438.534400 437.183641 435.827244 434.465183 433.097430 431.723960 430.344746 428.959762 427.568980 426.172375 424.769920 423.361589 421.947354 420.527191 419.101071 417.668969 416.230859 414.786713 413.336506 411.880211 410.417802 408.949252 407.474537 405.993628 404.506502 403.013130 401.513488 400.007551 398.495291 396.976684 395.451704 393.920325 392.382524 390.838274 389.287550 387.730328 386.166584 384.596292 383.019429 381.435970 379.845892 378.249170 376.645783 375.035705 373.418915 371.795390 370.165107 368.528044 366.884179 365.233491 363.575959 361.911561 360.240278 358.562088 356.876973 355.184913 353.485888 351.779881 350.066873 348.346847 346.619785 344.885671 343.144488 341.396222 339.640856 337.878377 336.108770 334.332023 332.548122 330.757056 328.958814 327.153384 325.340757 323.520924 321.693876 319.859607 318.018108 316.169376 314.313404 312.450188 310.579726 308.702016 306.817056 304.924847 303.025390 301.118686 299.204739 297.283554 295.355137 293.419493 291.476633 289.526565 287.569300 285.604851 283.633231 281.654457 279.668544 277.675512 275.675381 273.668173 271.653910 269.632619 267.604327 265.569062 263.526857 261.477743 259.421757 257.358935 255.289317 253.212944 251.129861 249.040113 246.943750 244.840822 242.731384 240.615492 238.493205 236.364585 234.229696 232.088607 229.941388 227.788113 225.628859 223.463706 221.292737 219.116040 216.933704 214.745825 212.552499 210.353829 208.149919 205.940879 203.726822 201.507866 199.284134 197.055750 194.822847 192.585559 190.344027 188.098395 185.848813 183.595437 181.338427 179.077947 176.814169 174.547269 172.277430 170.004839 167.729690 165.452183 163.172525 160.890927 158.607609 156.322797 154.036722 151.749625 149.461752 147.173355 144.884698 142.596047 140.307680 138.019879 135.732939 133.447158 131.162845 128.880317 126.599900 124.321928 122.046745 119.774703 117.506165 115.241500 112.981091 110.725328 108.474612 106.229353 103.989972 101.756901 99.530583 97.311469 95.100024 92.896723 90.702052
573.760730 572.936786 572.109837 571.279867 570.446861 569.610805 568.771681 567.929476 567.084173 566.235757 565.384213 564.529523 563.671672 562.810645 561.946425 561.078996 560.208341 559.334445 558.457290 557.576861 556.693139 555.806110 554.915755 554.022058 553.125002 552.224570 551.320744 550.413506 549.502841 548.588729 547.671153 546.750096 545.825540 544.897466 543.965857 543.030695 542.091961 541.149636 540.203703 539.254143 538.300937 537.344067 536.383512 535.419256 534.451278 533.479559 532.504080 531.524821 530.541764 529.554888 528.564174 527.569602 526.571151 525.568803 524.562536 523.552331 522.538167 521.520023 520.497880 519.471716 518.441511 517.407243 516.368892 515.326437 514.279856 513.229129 512.174233 511.115146 510.051849 508.984318 507.912531 506.836468 505.756105 504.671421 503.582393 502.488998 501.391215 500.289021 499.182392 498.071306 496.955741 495.835672 494.711078 493.581934 492.448217 491.309904 490.166971 489.019394 487.867150 486.710215 485.548564 484.382175 483.211021 482.035080 480.854327 479.668737 478.478285 477.282948 476.082699 474.877515 473.667371 472.452240 471.232098 470.006921 468.776682 467.541355 466.300917 465.055340 463.804599 462.548669 461.287523 460.021136 458.749482 457.472534 456.190267 454.902654 453.609668 452.311284 451.007475 449.698215 448.383477 447.063234 445.737459 444.406127 443.069210 441.726681 440.378514 439.024681 437.665156 436.299912 434.928921 433.552157 432.169592 430.781200 429.386953 427.986825 426.580787 425.168814 423.750877 422.326950 420.897005 419.461016 418.018955 416.570796 415.116511 413.656073 412.189455 410.716631 409.237573 407.752255 406.260650 404.762731 403.258472 401.747846 400.230827 398.707389 397.177504 395.641148 394.098294 392.548917 390.992990 389.430488 387.861386 386.285658 384.703280 383.114226 381.518473 379.915995 378.306768 376.690768 375.067972 373.438356 371.801897 370.158572 368.508358 366.851232 365.187173 363.516160 361.838170 360.153182 358.461177 356.762133 355.056032 353.342853 351.622577 349.895187 348.160663 346.418990 344.670149 342.914123 341.150898 339.380458 337.602788 335.817874 334.025702 332.226260 330.419535 328.605516 326.784193 324.955554 323.119593 321.276298 319.425665 317.567685 315.702353 313.829665 311.949615 310.062203 308.167425 306.265281 304.355771 302.438897 300.514661 298.583068 296.644121 294.697828 292.744196 290.783234 288.814953 286.839363 284.856479 282.866315 280.868888 278.864216 276.852317 274.833214 272.806930 270.773490 268.732920 266.685249 264.630508 262.568730 260.499949 258.424202 256.341530 254.251972 252.155574 250.052380 247.942441 245.825806 243.702531 241.572671 239.436286 237.293438 235.144192 232.988616 230.826781 228.658761 226.484634 224.304480 222.118385 219.926435 217.728721 215.525340 213.316388 211.101970 208.882191 206.657163 204.426999 202.191820 199.951748 197.706911 195.457443 193.203481 190.945166 188.682645 186.416072 184.145603 181.871400 179.593633 177.312474 175.028104 172.740707 170.450475 168.157604 165.862299 163.564770 161.265233 158.963911 156.661034 154.356840 152.051572 149.745482 147.438828 145.131877 142.824904 140.518190 138.212026 135.906709 133.602548 131.299856 128.998959 126.700189 124.403889 122.110409 119.820111 117.533365 115.250551 112.972059 110.698289 108.429652 106.166568 103.909469 101.658798 99.415007 97.178561 94.949936 92.729619
576.545756 575.725365 574.901972 574.075560 573.246116 572.413624 571.578068 570.739432 569.897701 569.052859 568.204891 567.353780 566.499511 565.642067 564.781432 563.917590 563.050525 562.180219 561.306657 560.429822 559.549697 558.666264 557.779508 556.889411 555.995956 555.099125 554.198901 553.295268 552.388206 551.477699 550.563729 549.646278 548.725328 547.800860 546.872858 545.941301 545.006173 544.067455 543.125127 542.179171 541.229569 540.276302 539.319350 538.358695 537.394316 536.426196 535.454314 534.478651 533.499187 532.515903 531.528778 530.537792 529.542927 528.544160 527.541473 526.534844 525.524253 524.509680 523.491103 522.468502 521.441856 520.411143 519.376343 518.337434 517.294395 516.247205 515.195841 514.140281 513.080505 512.016490 510.948214 509.875654 508.798789 507.717596 506.632053 505.542136 504.447823 503.349091 502.245918 501.138280 500.026153 498.909515 497.788342 496.662611 495.532298 494.397378 493.257830 492.113627 490.964747 489.811165 488.652856 487.489797 486.321963 485.149329 483.971870 482.789562 481.602380 480.410299 479.213293 478.011337 476.804407 475.592476 474.375519 473.153510 471.926424 470.694235 469.456917 468.214444 466.966789 465.713927 464.455832 463.192477 461.923835 460.649880 459.370586 458.085926 456.795872 455.500399 454.199479 452.893085 451.581190 450.263768 448.940790 447.612230 446.278061 444.938254 443.592784 442.241621 440.884739 439.522110 438.153707 436.779501 435.399466 434.013573 432.621795 431.224104 429.820473 428.410873 426.995276 425.573656 424.145984 422.712232 421.272372 419.826378 418.374220 416.915872 415.451305 413.980493 412.503406 411.020018 409.530302 408.034229 406.531772 405.022905 403.507599 401.985827 400.457564 398.922780 397.381450 395.833547 394.279045 392.717916 391.150135 389.575674 387.994510 386.406614 384.811962 383.210529 381.602288 379.987215 378.365286 376.736474 375.100757 373.458110 371.808510 370.151932 368.488353 366.817751 365.140103 363.455387 361.763581 360.064663 358.358612 356.645408 354.925031 353.197459 351.462675 349.720659 347.971393 346.214859 344.451039 342.679916 340.901476 339.115700 337.322576 335.522088 333.714223 331.898968 330.076310 328.246237 326.408740 324.563807 322.711430 320.851601 318.984312 317.109555 315.227327 313.337622 311.440436 309.535766 307.623612 305.703972 303.776848 301.842241 299.900154 297.950591 295.993558 294.029063 292.057112 290.077717 288.090887 286.096636 284.094977 282.085927 280.069504 278.045725 276.014612 273.976187 271.930475 269.877503 267.817298 265.749891 263.675314 261.593603 259.504792 257.408922 255.306034 253.196172 251.079381 248.955710 246.825211 244.687936 242.543944 240.393293 238.236046 236.072268 233.902027 231.725395 229.542446 227.353259 225.157914 222.956497 220.749096 218.535804 216.316715 214.091930 211.861553 209.625691 207.384456 205.137964 202.886336 200.629697 198.368177 196.101910 193.831034 191.555696 189.276043 186.992230 184.704417 182.412770 180.117459 177.818660 175.516557 173.211337 170.903196 168.592333 166.278958 163.963282 161.645528 159.325921 157.004698 154.682099 152.358374 150.033779 147.708578 145.383043 143.057455 140.732101 138.407277 136.083289 133.760451 131.439084 129.119521 126.802101 124.487175 122.175103 119.866253 117.561005 115.259747 112.962881 110.670814 108.383969 106.102776 103.827677 101.559126 99.297588 97.043539 94.797466
579.341102 578.524311 577.704521 576.881717 576.055882 575.227002 574.395062 573.560044 572.721935 571.880717 571.036375 570.188894 569.338256 568.484446 567.627448 566.767245 565.903820 565.037158 564.167241 563.294053 562.417576 561.537794 560.654690 559.768247 558.878447 557.985273 557.088707 556.188733 555.285331 554.378486 553.468177 552.554389 551.637102 550.716299 549.791961 548.864069 547.932606 546.997552 546.058889 545.116598 544.170661 543.221057 542.267769 541.310776 540.350059 539.385600 538.417378 537.445373 536.469566 535.489937 534.506466 533.519133 532.527917 531.532798 530.533756 529.530770 528.523820 527.512883 526.497941 525.478971 524.455953 523.428864 522.397685 521.362393 520.322966 519.279384 518.231623 517.179663 516.123481 515.063055 513.998362 512.929380 511.856087 510.778460 509.696477 508.610113 507.519347 506.424155 505.324514 504.220401 503.111792 501.998664 500.880992 499.758754 498.631924 497.500480 496.364397 495.223651 494.078217 492.928071 491.773188 490.613544 489.449114 488.279873 487.105795 485.926856 484.743030 483.554292 482.360617 481.161979 479.958352 478.749711 477.536029 476.317281 475.093440 473.864481 472.630376 471.391100 470.146627 468.896928 467.641979 466.381752 465.116219 463.845355 462.569132 461.287523 460.000501 458.708039 457.410108 456.106682 454.797734 453.483235 452.163157 450.837474 449.506157 448.169178 446.826510 445.478124 444.123993 442.764088 441.398381 440.026844 438.649448 437.266166 435.876968 434.481828 433.080715 431.673603 430.260461 428.841263 427.415979 425.984581 424.547041 423.103329 421.653418 420.197279 418.734884 417.266204 415.791211 414.309876 412.822172 411.328069 409.827540 408.320556 406.807090 405.287113 403.760598 402.227516 400.687840 399.141542 397.588595 396.028971 394.462643 392.889584 391.309766 389.723164 388.129749 386.529497 384.922380 383.308372 381.687447 380.059580 378.424746 376.782918 375.134073 373.478185 371.815229 370.145183 368.468022 366.783723 365.092262 363.393617 361.687765 359.974684 358.254354 356.526751 354.791857 353.049650 351.300111 349.543219 347.778958 346.007308 344.228251 342.441770 340.647850 338.846473 337.037625 335.221290 333.397456 331.566108 329.727235 327.880824 326.026865 324.165347 322.296262 320.419601 318.535356 316.643521 314.744090 312.837060 310.922426 309.000186 307.070338 305.132883 303.187821 301.235156 299.274889 297.307027 295.331575 293.348540 291.357932 289.359762 287.354040 285.340781 283.320000 281.291713 279.255939 277.212699 275.162013 273.103907 271.038406 268.965538 266.885333 264.797823 262.703042 260.601027 258.491816 256.375449 254.251972 252.121429 249.983870 247.839345 245.687908 243.529617 241.364529 239.192709 237.014222 234.829135 232.637522 230.439457 228.235018 226.024288 223.807352 221.584299 219.355223 217.120219 214.879389 212.632838 210.380673 208.123010 205.859964 203.591659 201.318220 199.039780 196.756474 194.468444 192.175836 189.878801 187.577496 185.272085 182.962733 180.649616 178.332912 176.012808 173.689495 171.363171 169.034040 166.702314 164.368211 162.031955 159.693778 157.353919 155.012625 152.670150 150.326755 147.982710 145.638293 143.293789 140.949494 138.605709 136.262747 133.920929 131.580583 129.242049 126.905675 124.571820 122.240851 119.913146 117.589094 115.269093 112.953553 110.642894 108.337545 106.037951 103.744563 101.457847 99.178280 96.906350
582.146775 581.333632 580.517493 579.698343 578.876166 578.050947 577.222671 576.391321 575.556882 574.719338 573.878673 573.034871 572.187916 571.337791 570.484480 569.627968 568.768236 567.905269 567.039050 566.169561 565.296787 564.420709 563.541311 562.658576 561.772486 560.883024 559.990172 559.093912 558.194227 557.291099 556.384510 555.474441 554.560875 553.643794 552.723178 551.799010 550.871271 549.939941 549.005003 548.066437 547.124225 546.178346 545.228782 544.275514 543.318522 542.357786 541.393286 540.425003 539.452918 538.477008 537.497256 536.513640 535.526139 534.534734 533.539404 532.540128 531.536885 530.529654 529.518414 528.503144 527.483822 526.460428 525.432939 524.401334 523.365591 522.325688 521.281603 520.233314 519.180798 518.124034 517.062999 515.997669 514.928023 513.854038 512.775690 511.692956 510.605813 509.514239 508.418208 507.317698 506.212686 505.103146 503.989056 502.870391 501.747127 500.619239 499.486704 498.349497 497.207593 496.060967 494.909594 493.753450 492.592509 491.426746 490.256136 489.080653 487.900271 486.714966 485.524711 484.329480 483.129247 481.923986 480.713670 479.498274 478.277772 477.052135 475.821338 474.585354 473.344156 472.097717 470.846010 469.589007 468.326682 467.059007 465.785954 464.507497 463.223606 461.934255 460.639416 459.339060 458.033161 456.721688 455.404616 454.081914 452.753555 451.419511 450.079752 448.734251 447.382979 446.025906 444.663006 443.294247 441.919603 440.539043 439.152539 437.760062 436.361583 434.957073 433.546503 432.129843 430.707064 429.278138 427.843036 426.401727 424.954183 423.500374 422.040272 420.573848 419.101071 417.621914 416.136346 414.644339 413.145864 411.640891 410.129393 408.611339 407.086702 405.555452 404.017561 402.473000 400.921741 399.363755 397.799015 396.227491 394.649157 393.063984 391.471944 389.873011 388.267156 386.654353 385.034574 383.407793 381.773983 380.133117 378.485171 376.830117 375.167931 373.498587 371.822059 370.138324 368.447357 366.749134 365.043630 363.330824 361.610692 359.883210 358.148359 356.406114 354.656456 352.899363 351.134816 349.362794 347.583279 345.796251 344.001692 342.199585 340.389914 338.572661 336.747812 334.915351 333.075264 331.227538 329.372160 327.509119 325.638402 323.760001 321.873906 319.980108 318.078600 316.169376 314.252429 312.327757 310.395355 308.455221 306.507355 304.551756 302.588426 300.617368 298.638585 296.652083 294.657868 292.655950 290.646337 288.629041 286.604074 284.571452 282.531189 280.483305 278.427818 276.364751 274.294126 272.215969 270.130308 268.037171 265.936591 263.828601 261.713237 259.590538 257.460545 255.323300 253.178849 251.027242 248.868528 246.702763 244.530002 242.350305 240.163736 237.970359 235.770243 233.563461 231.350089 229.130205 226.903892 224.671235 222.432326 220.187257 217.936126 215.679036 213.416091 211.147401 208.873083 206.593253 204.308037 202.017562 199.721961 197.421372 195.115940 192.805811 190.491140 188.172086 185.848813 183.521494 181.190303 178.855424 176.517045 174.175361 171.830574 169.482893 167.132531 164.779712 162.424663 160.067622 157.708832 155.348545 152.987019 150.624523 148.261330 145.897725 143.534000 141.170456 138.807401 136.445154 134.084044 131.724408 129.366591 127.010952 124.657855 122.307679 119.960810 117.617645 115.278593 112.944073 110.614516 108.290363 105.972068 103.660095 101.354922 99.057037
584.962780 584.153332 583.340891 582.525444 581.706973 580.885464 580.060901 579.233268 578.402549 577.568729 576.731791 575.891719 575.048497 574.202109 573.352537 572.499767 571.643780 570.784561 569.922092 569.056357 568.187338 567.315019 566.439381 565.560409 564.678084 563.792388 562.903305 562.010816 561.114904 560.215550 559.312737 558.406446 557.496659 556.583357 555.666523 554.746137 553.822181 552.894635 551.963482 551.028702 550.090275 549.148183 548.202405 547.252924 546.299718 545.342768 544.382055 543.417558 542.449257 541.477132 540.501163 539.521329 538.537610 537.549985 536.558434 535.562934 534.563466 533.560008 532.552540 531.541038 530.525483 529.505852 528.482124 527.454277 526.422289 525.386137 524.345800 523.301255 522.252480 521.199451 520.142147 519.080545 518.014621 516.944353 515.869717 514.790689 513.707248 512.619368 511.527026 510.430199 509.328862 508.222991 507.112562 505.997552 504.877934 503.753686 502.624781 501.491196 500.352905 499.209883 498.062105 496.909546 495.752181 494.589983 493.422928 492.250989 491.074140 489.892356 488.705609 487.513876 486.317127 485.115338 483.908481 482.696530 481.479459 480.257239 479.029844 477.797247 476.559420 475.316337 474.067969 472.814289 471.555269 470.290882 469.021100 467.745894 466.465236 465.179098 463.887453 462.590271 461.287523 459.979183 458.665219 457.345605 456.020311 454.689308 453.352568 452.010060 450.661756 449.307627 447.947643 446.581775 445.209994 443.832270 442.448573 441.058875 439.663145 438.261353 436.853470 435.439467 434.019312 432.592977 431.160432 429.721647 428.276591 426.825235 425.367549 423.903504 422.433068 420.956213 419.472909 417.983124 416.486831 414.983998 413.474597 411.958597 410.435968 408.906682 407.370708 405.828018 404.278581 402.722369 401.159352 399.589501 398.012787 396.429182 394.838656 393.241182 391.636730 390.025273 388.406782 386.781230 385.148588 383.508830 381.861928 380.207856 378.546585 376.878091 375.202346 373.519325 371.829002 370.131352 368.426349 366.713970 364.994189 363.266984 361.532329 359.790204 358.040583 356.283447 354.518772 352.746537 350.966723 349.179307 347.384272 345.581598 343.771266 341.953258 340.127557 338.294148 336.453013 334.604138 332.747508 330.883109 329.010930 327.130957 325.243180 323.347589 321.444174 319.532926 317.613839 315.686907 313.752122 311.809483 309.858985 307.900626 305.934406 303.960326 301.978387 299.988593 297.990947 295.985456 293.972128 291.950970 289.921995 287.885213 285.840638 283.788287 281.728175 279.660323 277.584751 275.501482 273.410541 271.311954 269.205750 267.091962 264.970621 262.841764 260.705429 258.561656 256.410489 254.251972 252.086155 249.913088 247.732825 245.545422 243.350941 241.149442 238.940993 236.725662 234.503522 232.274648 230.039121 227.797024 225.548442 223.293467 221.032194 218.764720 216.491149 214.211587 211.926146 209.634941 207.338094 205.035728 202.727974 200.414967 198.096847 195.773759 193.445853 191.113286 188.776219 186.434820 184.089262 181.739724 179.386392 177.029459 174.669121 172.305586 169.939064 167.569775 165.197944 162.823806 160.447600 158.069577 155.689992 153.309109 150.927201 148.544550 146.161445 143.778184 141.395074 139.012432 136.630583 134.249863 131.870617 129.493199 127.117974 124.745317 122.375615 120.009263 117.646668 115.288249 112.934436 110.585670 108.242404 105.905102 103.574241 101.250311
587.789123 586.983417 586.174724 585.363027 584.548311 583.730560 582.909759 582.085893 581.258944 580.428897 579.595736 578.759445 577.920007 577.077407 576.231626 575.382650 574.530461 573.675042 572.816377 571.954448 571.089239 570.220731 569.348909 568.473754 567.595248 566.713375 565.828117 564.939455 564.047372 563.151849 562.252869 561.350413 560.444463 559.535000 558.622006 557.705461 556.785348 555.861647 554.934338 554.003404 553.068824 552.130580 551.188651 550.243018 549.293662 548.340561 547.383698 546.423050 545.458599 544.490323 543.518203 542.542218 541.562346 540.578568 539.590862 538.599207 537.603582 536.603966 535.600337 534.592674 533.580955 532.565158 531.545261 530.521243 529.493081 528.460753 527.424236 526.383508 525.338547 524.289328 523.235831 522.178030 521.115904 520.049429 518.978582 517.903338 516.823675 515.739568 514.650994 513.557928 512.460346 511.358225 510.251539 509.140264 508.024375 506.903848 505.778657 504.648777 503.514184 502.374851 501.230754 500.081866 498.928163 497.769617 496.606204 495.437897 494.264670 493.086497 491.903350 490.715204 489.522032 488.323806 487.120501 485.912088 484.698541 483.479833 482.255935 481.026821 479.792462 478.552831 477.307901 476.057642 474.802027 473.541027 472.274615 471.002762 469.725439 468.442617 467.154269 465.860364 464.560874 463.255770 461.945022 460.628603 459.306481 457.978627 456.645013 455.305609 453.960384 452.609309 451.252354 449.889489 448.520685 447.145911 445.765136 444.378332 442.985467 441.586511 440.181433 438.770205 437.352794 435.929170 434.499304 433.063163 431.620719 430.171939 428.716794 427.255253 425.787284 424.312858 422.831944 421.344511 419.850528 418.349965 416.842792 415.328977 413.808490 412.281300 410.747378 409.206693 407.659214 406.104912 404.543756 402.975716 401.400762 399.818864 398.229993 396.634120 395.031213 393.421246 391.804187 390.180009 388.548682 386.910177 385.264468 383.611524 381.951319 380.283825 378.609013 376.926858 375.237332 373.540408 371.836060 370.124263 368.404990 366.678217 364.943918 363.202069 361.452645 359.695625 357.930983 356.158697 354.378746 352.591106 350.795758 348.992680 347.181853 345.363256 343.536872 341.702681 339.860666 338.010810 336.153098 334.287513 332.414041 330.532669 328.643383 326.746171 324.841021 322.927925 321.006872 319.077853 317.140863 315.195893 313.242940 311.281999 309.313067 307.336143 305.351226 303.358318 301.357420 299.348536 297.331672 295.306833 293.274029 291.233268 289.184562 287.127925 285.063369 282.990914 280.910575 278.822375 276.726334 274.622478 272.510832 270.391425 268.264288 266.129453 263.986957 261.836835 259.679130 257.513883 255.341140 253.160949 250.973360 248.778428 246.576210 244.366764 242.150155 239.926447 237.695711 235.458019 233.213448 230.962077 228.703990 226.439275 224.168023 221.890328 219.606292 217.316016 215.019610 212.717185 210.408860 208.094755 205.774997 203.449718 201.119055 198.783148 196.442147 194.096203 191.745474 189.390126 187.030327 184.666254 182.298090 179.926023 177.550248 175.170968 172.788391 170.402733 168.014217 165.623074 163.229541 160.833864 158.436297 156.037102 153.636547 151.234912 148.832484 146.429558 144.026438 141.623440 139.220886 136.819110 134.418453 132.019270 129.621923 127.226785 124.834241 122.444686 120.058525 117.676175 115.298067 112.924639 110.556344 108.193647 105.837025 103.486965
590.625809 589.823893 589.018994 588.211096 587.400183 586.586240 585.769251 584.949200 584.126072 583.299849 582.470516 581.638056 580.802454 579.963692 579.121755 578.276625 577.428285 576.576720 575.721911 574.863843 574.002496 573.137855 572.269902 571.398620 570.523990 569.645995 568.764617 567.879838 566.991641 566.100007 565.204917 564.306354 563.404299 562.498733 561.589638 560.676994 559.760783 558.840986 557.917584 556.990557 556.059885 555.125551 554.187532 553.245811 552.300367 551.351180 550.398229 549.441496 548.480959 547.516598 546.548392 545.576320 544.600363 543.620498 542.636705 541.648962 540.657249 539.661543 538.661823 537.658068 536.650255 535.638363 534.622369 533.602251 532.577987 531.549555 530.516932 529.480095 528.439021 527.393687 526.344070 525.290147 524.231895 523.169290 522.102308 521.030925 519.955119 518.874864 517.790136 516.700912 515.607166 514.508874 513.406012 512.298555 511.186477 510.069754 508.948361 507.822271 506.691460 505.555902 504.415571 503.270441 502.120486 500.965681 499.805999 498.641413 497.471897 496.297424 495.117968 493.933501 492.743997 491.549428 490.349767 489.144986 487.935059 486.719957 485.499652 484.274117 483.043324 481.807243 480.565848 479.319110 478.066999 476.809488 475.546548 474.278149 473.004263 471.724861 470.439913 469.149390 467.853263 466.551502 465.244077 463.930959 462.612118 461.287523 459.957146 458.620955 457.278920 455.931011 454.577198 453.217451 451.851737 450.480028 449.102292 447.718498 446.328615 444.932613 443.530461 442.122127 440.707580 439.286789 437.859724 436.426351 434.986642 433.540563 432.088084 430.629173 429.163799 427.691930 426.213535 424.728583 423.237041 421.738879 420.234066 418.722569 417.204357 415.679399 414.147664 412.609121 411.063738 409.511483 407.952327 406.386238 404.813184 403.233136 401.646063 400.051933 398.450717 396.842383 395.226903 393.604245 391.974380 390.337279 388.692910 387.041247 385.382258 383.715915 382.042190 380.361055 378.672480 376.976438 375.272902 373.561844 371.843237 370.117055 368.383271 366.641859 364.892795 363.136052 361.371606 359.599434 357.819510 356.031812 354.236318 352.433004 350.621849 348.802832 346.975933 345.141131 343.298407 341.447743 339.589120 337.722522 335.847932 333.965335 332.074715 330.176058 328.269351 326.354583 324.431742 322.500816 320.561798 318.614679 316.659450 314.696107 312.724645 310.745059 308.757346 306.761507 304.757540 302.745446 300.725230 298.696894 296.660446 294.615890 292.563238 290.502499 288.433685 286.356811 284.271892 282.178945 280.077991 277.969051 275.852148 273.727309 271.594560 269.453933 267.305460 265.149175 262.985115 260.813322 258.633836 256.446704 254.251972 252.049692 249.839918 247.622706 245.398115 243.166210 240.927055 238.680721 236.427281 234.166811 231.899392 229.625108 227.344047 225.056301 222.761966 220.461142 218.153934 215.840452 213.520808 211.195121 208.863515 206.526117 204.183062 201.834486 199.480534 197.121356 194.757106 192.387946 190.014040 187.635564 185.252694 182.865618 180.474526 178.079618 175.681098 173.279180 170.874084 168.466036 166.055271 163.642032 161.226569 158.809142 156.390016 153.969468 151.547781 149.125249 146.702174 144.278867 141.855648 139.432850 137.010811 134.589884 132.170429 129.752817 127.337431 124.924664 122.514920 120.108616 117.706180 115.308049 112.914677 110.526527 108.144074 105.767809
593.472842 592.674764 591.873708 591.069658 590.262597 589.452511 588.639383 587.823197 587.003938 586.181589 585.356135 584.527558 583.695842 582.860972 582.022929 581.181698 580.337261 579.489602 578.638704 577.784548 576.927119 576.066399 575.202370 574.335015 573.464316 572.590255 571.712814 570.831975 569.947721 569.060032 568.168891 567.274279 566.376177 565.474567 564.569430 563.660747 562.748499 561.832666 560.913230 559.990172 559.063470 558.133107 557.199062 556.261315 555.319846 554.374636 553.425663 552.472908 551.516350 550.555969 549.591743 548.623652 547.651676 546.675791 545.695979 544.712217 543.724483 542.732756 541.737015 540.737238 539.733401 538.725484 537.713465 536.697320 535.677027 534.652563 533.623907 532.591034 531.553922 530.512547 529.466887 528.416918 527.362616 526.303957 525.240918 524.173475 523.101604 522.025279 520.944478 519.859175 518.769346 517.674966 516.576009 515.472452 514.364268 513.251433 512.133921 511.011706 509.884762 508.753064 507.616586 506.475301 505.329183 504.178206 503.022343 501.861568 500.695853 499.525172 498.349497 497.168801 495.983058 494.792238 493.596316 492.395262 491.189049 489.977650 488.761035 487.539176 486.312045 485.079614 483.841854 482.598736 481.350230 480.096309 478.836942 477.572101 476.301756 475.025877 473.744435 472.457399 471.164741 469.866430 468.562436 467.252728 465.937276 464.616051 463.289020 461.956154 460.617422 459.272793 457.922235 456.565719 455.203212 453.834684 452.460102 451.079437 449.692656 448.299727 446.900619 445.495301 444.083740 442.665905 441.241763 439.811284 438.374434 436.931182 435.481496 434.025343 432.562691 431.093509 429.617763 428.135423 426.646455 425.150826 423.648506 422.139462 420.623661 419.101071 417.571660 416.035397 414.492247 412.942181 411.385165 409.821168 408.250158 406.672102 405.086970 403.494730 401.895349 400.288797 398.675043 397.054055 395.425801 393.790253 392.147378 390.497146 388.839527 387.174490 385.502007 383.822046 382.134580 380.439578 378.737011 377.026852 375.309072 373.583642 371.850535 370.109724 368.361182 366.604882 364.840798 363.068905 361.289177 359.501589 357.706117 355.902737 354.091425 352.272160 350.444918 348.609678 346.766420 344.915122 343.055765 341.188330 339.312798 337.429153 335.537378 333.637456 331.729372 329.813112 327.888664 325.956014 324.015150 322.066064 320.108745 318.143184 316.169376 314.187313 312.196991 310.198407 308.191557 306.176442 304.153061 302.121417 300.081512 298.033351 295.976942 293.912291 291.839408 289.758305 287.668995 285.571493 283.465816 281.351982 279.230013 277.099931 274.961761 272.815531 270.661271 268.499011 266.328788 264.150636 261.964597 259.770711 257.569025 255.359584 253.142441 250.917648 248.685262 246.445342 244.197953 241.943159 239.681031 237.411643 235.135071 232.851396 230.560703 228.263080 225.958620 223.647420 221.329581 219.005209 216.674414 214.337310 211.994018 209.644662 207.289371 204.928282 202.561533 200.189271 197.811648 195.428819 193.040949 190.648207 188.250768 185.848813 183.442533 181.032121 178.617779 176.199718 173.778152 171.353307 168.925414 166.494712 164.061448 161.625877 159.188265 156.748882 154.308010 151.865939 149.422969 146.979408 144.535574 142.091796 139.648412 137.205770 134.764228 132.324157 129.885936 127.449957 125.016623 122.586348 120.159559 117.736693 115.318201 112.904547 110.496205 108.093664
596.330227 595.536035 594.738870 593.938716 593.135556 592.329376 591.520158 590.707888 589.892549 589.074125 588.252600 587.427957 586.600180 585.769251 584.935156 584.097876 583.257394 582.413695 581.566760 580.716573 579.863115 579.006370 578.146320 577.282948 576.416235 575.546164 574.672716 573.795874 572.915620 572.031934 571.144799 570.254197 569.360107 568.462512 567.561393 566.656730 565.748504 564.836697 563.921289 563.002260 562.079590 561.153261 560.223251 559.289542 558.352112 557.410943 556.466012 555.517300 554.564787 553.608451 552.648272 551.684228 550.716299 549.744463 548.768699 547.788985 546.805300 545.817623 544.825930 543.830200 542.830411 541.826541 540.818567 539.806467 538.790217 537.769796 536.745180 535.716346 534.683270 533.645931 532.604303 531.558363 530.508088 529.453453 528.394435 527.331010 526.263152 525.190838 524.114043 523.032742 521.946911 520.856523 519.761555 518.661981 517.557774 516.448911 515.335365 514.217109 513.094119 511.966368 510.833829 509.696477 508.554284 507.407224 506.255270 505.098395 503.936572 502.769773 501.597972 500.421140 499.239250 498.052275 496.860185 495.662953 494.460551 493.252950 492.040122 490.822037 489.598668 488.369986 487.135960 485.896562 484.651763 483.401534 482.145843 480.884663 479.617962 478.345712 477.067881 475.784440 474.495357 473.200604 471.900149 470.593961 469.282009 467.964263 466.640691 465.311263 463.975946 462.634710 461.287523 459.934354 458.575170 457.209940 455.838631 454.461213 453.077652 451.687917 450.291976 448.889795 447.481343 446.066587 444.645495 443.218033 441.784169 440.343871 438.897105 437.443839 435.984040 434.517675 433.044710 431.565114 430.078852 428.585892 427.086200 425.579744 424.066491 422.546406 421.019458 419.485614 417.944839 416.397102 414.842369 413.280607 411.711784 410.135866 408.552821 406.962617 405.365220 403.760598 402.148719 400.529551 398.903061 397.269218 395.627989 393.979343 392.323249 390.659675 388.988590 387.309963 385.623763 383.929961 382.228525 380.519427 378.802635 377.078121 375.345856 373.605811 371.857958 370.102268 368.338714 366.567270 364.787907 363.000599 361.205321 359.402047 357.590753 355.771413 353.944004 352.108503 350.264886 348.413132 346.553219 344.685126 342.808834 340.924322 339.031573 337.130568 335.221290 333.303723 331.377852 329.443663 327.501141 325.550274 323.591051 321.623461 319.647495 317.663145 315.670403 313.669264 311.659723 309.641777 307.615424 305.580663 303.537495 301.485922 299.425949 297.357580 295.280822 293.195685 291.102179 289.000316 286.890110 284.771578 282.644737 280.509608 278.366213 276.214575 274.054723 271.886684 269.710491 267.526176 265.333777 263.133332 260.924883 258.708475 256.484154 254.251972 252.011981 249.764238 247.508803 245.245739 242.975111 240.696991 238.411452 236.118570 233.818428 231.511110 229.196706 226.875308 224.547015 222.211928 219.870155 217.521806 215.166997 212.805850 210.438490 208.065050 205.685664 203.300477 200.909634 198.513290 196.111604 193.704743 191.292876 188.876184 186.454850 184.029066 181.599031 179.164951 176.727037 174.285511 171.840601 169.392542 166.941579 164.487963 162.031955 159.573824 157.113848 154.652315 152.189519 149.725769 147.261377 144.796671 142.331985 139.867665 137.404068 134.941560 132.480520 130.021337 127.564413 125.110159 122.659000 120.211374 117.767729 115.328527 112.894243 110.465365
599.197967 598.407710 597.614485 596.818275 596.019065 595.216840 594.411583 593.603278 592.791910 591.977461 591.159916 590.339258 589.515471 588.688537 587.858441 587.025165 586.188692 585.349005 584.506088 583.659922 582.810490 581.957775 581.101760 580.242425 579.379755 578.513730 577.644332 576.771544 575.895347 575.015722 574.132652 573.246116 572.356098 571.462577 570.565535 569.664953 568.760811 567.853089 566.941770 566.026832 565.108257 564.186024 563.260113 562.330504 561.397177 560.460112 559.519289 558.574685 557.626282 556.674057 555.717991 554.758061 553.794247 552.826527 551.854880 550.879284 549.899717 548.916157 547.928583 546.936972 545.941301 544.941550 543.937693 542.929710 541.917577 540.901272 539.880770 538.856049 537.827086 536.793856 535.756336 534.714503 533.668332 532.617799 531.562881 530.503551 529.439787 528.371563 527.298855 526.221637 525.139885 524.053572 522.962675 521.867167 520.767022 519.662215 518.552719 517.438509 516.319558 515.195841 514.067329 512.933997 511.795818 510.652764 509.504809 508.351925 507.194085 506.031262 504.863426 503.690551 502.512609 501.329571 500.141409 498.948095 497.749600 496.545895 495.336951 494.122740 492.903231 491.678397 490.448207 489.212631 487.971641 486.725205 485.473295 484.215879 482.952929 481.684412 480.410299 479.130558 477.845160 476.554073 475.257266 473.954708 472.646368 471.332213 470.012213 468.686335 467.354548 466.016821 464.673120 463.323413 461.967670 460.605856 459.237939 457.863888 456.483669 455.097249 453.704596 452.305676 450.900457 449.488905 448.070987 446.646670 445.215920 443.778704 442.334988 440.884739 439.427923 437.964507 436.494456 435.017737 433.534316 432.044159 430.547233 429.043502 427.532934 426.015495 424.491150 422.959865 421.421607 419.876342 418.324036 416.764654 415.198163 413.624530 412.043720 410.455700 408.860436 407.257895 405.648043 404.030847 402.406274 400.774290 399.134863 397.487960 395.833547 394.171594 392.502066 390.824933 389.140162 387.447721 385.747579 384.039705 382.324067 380.600635 378.869378 377.130267 375.383271 373.628361 371.865508 370.094684 368.315858 366.529005 364.734096 362.931103 361.120002 359.300765 357.473367 355.637782 353.793987 351.941958 350.081671 348.213103 346.336233 344.451039 342.557500 340.655598 338.745313 336.826626 334.899521 332.963980 331.019989 329.067532 327.106596 325.137169 323.159238 321.172793 319.177826 317.174327 315.162289 313.141708 311.112578 309.074897 307.028663 304.973875 302.910535 300.838647 298.758213 296.669241 294.571738 292.465713 290.351179 288.228148 286.096636 283.956659 281.808238 279.651393 277.486149 275.312531 273.130568 270.940290 268.741731 266.534926 264.319914 262.096736 259.865437 257.626063 255.378664 253.123294 250.860009 248.588868 246.309935 244.023276 241.728961 239.427063 237.117662 234.800837 232.476675 230.145265 227.806702 225.461083 223.108512 220.749096 218.382948 216.010185 213.630928 211.245307 208.853452 206.455504 204.051605 201.641906 199.226561 196.805734 194.379591 191.948308 189.512065 187.071050 184.625458 182.175491 179.721358 177.263275 174.801468 172.336168 169.867616 167.396060 164.921758 162.444974 159.965984 157.485072 155.002530 152.518662 150.033779 147.548204 145.062269 142.576318 140.090704 137.605792 135.121957 132.639587 130.159080 127.680848 125.205312 122.732908 120.264084 117.799300 115.339030 112.883762
602.076067 601.289793 600.500555 599.708339 598.913129 598.114908 597.313661 596.509372 595.702025 594.891602 594.078088 593.261467 592.441721 591.618835 590.792790 589.963571 589.131159 588.295539 587.456693 586.614603 585.769251 584.920622 584.068695 583.213455 582.354883 581.492960 580.627669 579.758992 578.886909 578.011404 577.132456 576.250047 575.364158 574.474771 573.581867 572.685425 571.785427 570.881853 569.974683 569.063899 568.149480 567.231406 566.309657 565.384213 564.455053 563.522157 562.585505 561.645075 560.700848 559.752801 558.800914 557.845165 556.885534 555.921998 554.954536 553.983126 553.007746 552.028375 551.044990 550.057568 549.066088 548.070526 547.070860 546.067067 545.059124 544.047008 543.030695 542.010162 540.985386 539.956342 538.923008 537.885358 536.843369 535.797016 534.746275 533.691121 532.631530 531.567477 530.498936 529.425883 528.348291 527.266137 526.179393 525.088035 523.992036 522.891370 521.786011 520.675932 519.561108 518.441511 517.317114 516.187891 515.053815 513.914857 512.770992 511.622190 510.468425 509.309668 508.145892 506.977067 505.803167 504.624162 503.440024 502.250724 501.056233 499.856521 498.651561 497.441321 496.225774 495.004888 493.778634 492.546983 491.309904 490.067366 488.819340 487.565794 486.306699 485.042022 483.771734 482.495803 481.214197 479.926886 478.633838 477.335021 476.030403 474.719952 473.403637 472.081424 470.753282 469.419179 468.079080 466.732955 465.380770 464.022491 462.658087 461.287523 459.910767 458.527785 457.138544 455.743009 454.341148 452.932926 451.518309 450.097264 448.669757 447.235752 445.795217 444.348116 442.894416 441.434082 439.967079 438.493373 437.012928 435.525712 434.031688 432.530822 431.023079 429.508425 427.986825 426.458243 424.922645 423.379996 421.830262 420.273406 418.709396 417.138195 415.559769 413.974084 412.381105 410.780796 409.173124 407.558055 405.935554 404.305586 402.668117 401.023115 399.370544 397.710371 396.042562 394.367084 392.683905 390.992990 389.294306 387.587823 385.873506 384.151324 382.421245 380.683238 378.937271 377.183313 375.421334 373.651303 371.873190 370.086967 368.292603 366.490071 364.679341 362.860387 361.033180 359.197695 357.353904 355.501783 353.641306 351.772448 349.895187 348.009498 346.115359 344.212748 342.301645 340.382029 338.453881 336.517182 334.571915 332.618062 330.655608 328.684538 326.704839 324.716497 322.719500 320.713839 318.699504 316.676487 314.644781 312.604381 310.555281 308.497480 306.430977 304.355771 302.271864 300.179260 298.077964 295.967983 293.849324 291.721999 289.586021 287.441402 285.288161 283.126314 280.955884 278.776892 276.589364 274.393328 272.188813 269.975853 267.754483 265.524740 263.286666 261.040304 258.785700 256.522906 254.251972 251.972956 249.685917 247.390918 245.088026 242.777310 240.458846 238.132709 235.798983 233.457754 231.109111 228.753150 226.389969 224.019673 221.642369 219.258171 216.867198 214.469573 212.065425 209.654889 207.238105 204.815217 202.386379 199.951748 197.511487 195.065769 192.614769 190.158671 187.697667 185.231955 182.761739 180.287234 177.808658 175.326241 172.840219 170.350838 167.858350 165.363018 162.865113 160.364916 157.862715 155.358810 152.853510 150.347135 147.840014 145.332487 142.824904 140.317628 137.811032 135.305500 132.801428 130.299226 127.799314 125.302125 122.808105 120.317713 117.831422 115.349717
604.964530 604.182286 603.397085 602.608912 601.817750 601.023584 600.226397 599.426174 598.622898 597.816552 597.007121 596.194588 595.378936 594.560148 593.738208 592.913098 592.084802 591.253302 590.418581 589.580621 588.739405 587.894915 587.047134 586.196043 585.341625 584.483862 583.622735 582.758225 581.890315 581.018986 580.144220 579.265996 578.384297 577.499103 576.610396 575.718155 574.822362 573.922996 573.020039 572.113470 571.203270 570.289418 569.371894 568.450678 567.525750 566.597088 565.664672 564.728482 563.788496 562.844693 561.897053 560.945553 559.990172 559.030888 558.067680 557.100526 556.129404 555.154291 554.175165 553.192004 552.204785 551.213486 550.218083 549.218553 548.214874 547.207021 546.194972 545.178703 544.158190 543.133409 542.104336 541.070947 540.033217 538.991123 537.944639 536.893740 535.838402 534.778600 533.714308 532.645501 531.572153 530.494240 529.411733 528.324609 527.232840 526.136401 525.035264 523.929404 522.818793 521.703405 520.583212 519.458187 518.328303 517.193532 516.053847 514.909219 513.759621 512.605024 511.445400 510.280721 509.110958 507.936081 506.756063 505.570874 504.380485 503.184865 501.983987 500.777819 499.566333 498.349497 497.127282 495.899657 494.666593 493.428057 492.184020 490.934450 489.679316 488.418587 487.152232 485.880219 484.602515 483.319091 482.029912 480.734948 479.434165 478.127532 476.815015 475.496583 474.172202 472.841839 471.505461 470.163035 468.814528 467.459905 466.099133 464.732180 463.359009 461.979588 460.593883 459.201859 457.803482 456.398717 454.987530 453.569886 452.145751 450.715089 449.277865 447.834046 446.383595 444.926477 443.462657 441.992100 440.514770 439.030631 437.539650 436.041788 434.537012 433.025285 431.506572 429.980837 428.448044 426.908158 425.361142 423.806961 422.245580 420.676962 419.101071 417.517873 415.927330 414.329409 412.724072 411.111286 409.491013 407.863219 406.227869 404.584927 402.934358 401.276128 399.610201 397.936544 396.255121 394.565898 392.868841 391.163916 389.451090 387.730328 386.001599 384.264868 382.520103 380.767272 379.006342 377.237282 375.460060 373.674645 371.881007 370.079115 368.268939 366.450450 364.623619 362.788417 360.944817 359.092790 357.232311 355.363352 353.485888 351.599895 349.705346 347.802220 345.890492 343.970141 342.041145 340.103484 338.157137 336.202086 334.238312 332.265799 330.284531 328.294492 326.295669 324.288048 322.271618 320.246369 318.212291 316.169376 314.117617 312.057009 309.987548 307.909233 305.822061 303.726033 301.621152 299.507423 297.384850 295.253441 293.113205 290.964155 288.806304 286.639666 284.464260 282.280105 280.087223 277.885640 275.675381 273.456477 271.228958 268.992861 266.748221 264.495081 262.233481 259.963470 257.685097 255.398413 253.103475 250.800342 248.489078 246.169748 243.842423 241.507177 239.164088 236.813239 234.454715 232.088607 229.715012 227.334028 224.945760 222.550318 220.147815 217.738373 215.322115 212.899172 210.469680 208.033780 205.591621 203.143356 200.689146 198.229156 195.763559 193.292536 190.816274 188.334966 185.848813 183.358026 180.862819 178.363418 175.860055 173.352972 170.842417 168.328650 165.811938 163.292557 160.770793 158.246943 155.721311 153.194214 150.665977 148.136938 145.607444 143.077854 140.548539 138.019879 135.492270 132.966117 130.441838 127.919865 125.400641 122.884624 120.372284 117.864107
607.863358 607.085193 606.304078 605.519997 604.732933 603.942871 603.149794 602.353687 601.554533 600.752316 599.947019 599.138626 598.327120 597.512483 596.694700 595.873753 595.049625 594.222299 593.391757 592.557982 591.720956 590.880662 590.037081 589.190196 588.339989 587.486442 586.629535 585.769251 584.905572 584.038478 583.167951 582.293972 581.416522 580.535581 579.651131 578.763152 577.871625 576.976530 576.077846 575.175555 574.269636 573.360070 572.446835 571.529911 570.609278 569.684915 568.756802 567.824917 566.889239 565.949747 565.006420 564.059236 563.108174 562.153211 561.194327 560.231498 559.264703 558.293919 557.319124 556.340295 555.357410 554.370445 553.379378 552.384185 551.384843 550.381329 549.373619 548.361688 547.345514 546.325072 545.300338 544.271288 543.237896 542.200139 541.157991 540.111428 539.060424 538.004954 536.944993 535.880514 534.811493 533.737903 532.659718 531.576913 530.489460 529.397333 528.300505 527.198950 526.092640 524.981549 523.865648 522.744911 521.619310 520.488816 519.353403 518.213041 517.067703 515.917360 514.761983 513.601543 512.436012 511.265361 510.089560 508.908579 507.722390 506.530962 505.334265 504.132270 502.924946 501.712262 500.494188 499.270694 498.041748 496.807319 495.567376 494.321888 493.070824 491.814150 490.551837 489.283851 488.010160 486.730733 485.445536 484.154537 482.857703 481.555002 480.246400 478.931863 477.611360 476.284856 474.952317 473.613709 472.269000 470.918154 469.561137 468.197916 466.828455 465.452720 464.070676 462.682289 461.287523 459.886344 458.478716 457.064603 455.643971 454.216783 452.783005 451.342600 449.895533 448.441767 446.981267 445.513996 444.039919 442.558999 441.071199 439.576484 438.074817 436.566161 435.050480 433.527737 431.997896 430.460920 428.916771 427.365415 425.806813 424.240929 422.667726 421.087168 419.499218 417.903839 416.300995 414.690648 413.072763 411.447304 409.814232 408.173513 406.525110 404.868987 403.205108 401.533436 399.853937 398.166575 396.471314 394.768119 393.056955 391.337787 389.610580 387.875300 386.131914 384.380386 382.620684 380.852774 379.076622 377.292198 375.499467 373.698399 371.888961 370.071123 368.244854 366.410124 364.566902 362.715160 360.854869 358.986001 357.108528 355.222423 353.327660 351.424213 349.512058 347.591169 345.661524 343.723099 341.775873 339.819825 337.854933 335.881180 333.898547 331.907016 329.906571 327.897197 325.878880 323.851606 321.815364 319.770143 317.715935 315.652731 313.580524 311.499310 309.409085 307.309847 305.201595 303.084331 300.958058 298.822779 296.678503 294.525236 292.362990 290.191777 288.011612 285.822510 283.624491 281.417577 279.201790 276.977158 274.743707 272.501471 270.250483 267.990779 265.722399 263.445387 261.159787 258.865650 256.563026 254.251972 251.932547 249.604814 247.268839 244.924692 242.572448 240.212185 237.843985 235.467936 233.084128 230.692657 228.293625 225.887135 223.473299 221.052232 218.624055 216.188894 213.746881 211.298154 208.842855 206.381135 203.913150 201.439061 198.959037 196.473255 193.981896 191.485151 188.983217 186.476297 183.964606 181.448363 178.927797 176.403144 173.874651 171.342571 168.807169 166.268716 163.727496 161.183799 158.637929 156.090197 153.540926 150.990449 148.439110 145.887267 143.335284 140.783542 138.232431 135.682355 133.133729 130.586982 128.042556 125.500906 122.962501 120.427824
610.772554 609.998518 609.221537 608.441597 607.658680 606.872772 606.083856 605.291916 604.496935 603.698897 602.897786 602.093584 601.286276 600.475844 599.662271 598.845540 598.025634 597.202535 596.376227 595.546691 594.713911 593.877867 593.038543 592.195920 591.349980 590.500705 589.648077 588.792077 587.932686 587.069885 586.203657 585.333982 584.460840 583.584213 582.704081 581.820425 580.933224 580.042461 579.148113 578.250163 577.348589 576.443370 575.534488 574.621921 573.705649 572.785650 571.861904 570.934390 570.003087 569.067973 568.129027 567.186227 566.239552 565.288979 564.334487 563.376053 562.413656 561.447272 560.476879 559.502454 558.523974 557.541417 556.554760 555.563977 554.569048 553.569947 552.566650 551.559135 550.547377 549.531351 548.511033 547.486400 546.457425 545.424084 544.386352 543.344204 542.297615 541.246559 540.191010 539.130943 538.066331 536.997150 535.923371 534.844969 533.761917 532.674189 531.581757 530.484595 529.382674 528.275969 527.164450 526.048091 524.926863 523.800738 522.669688 521.533685 520.392700 519.246705 518.095669 516.939565 515.778363 514.612033 513.440546 512.263873 511.081982 509.894845 508.702431 507.504709 506.301648 505.093219 503.879390 502.660130 501.435408 500.205191 498.969450 497.728151 496.481263 495.228754 493.970592 492.706743 491.437176 490.161858 488.880755 487.593835 486.301065 485.002411 483.697839 482.387316 481.070808 479.748281 478.419700 477.085032 475.744241 474.397294 473.044156 471.684790 470.319164 468.947241 467.568985 466.184362 464.793337 463.395872 461.991932 460.581482 459.164485 457.740905 456.310706 454.873851 453.430304 451.980027 450.522985 449.059140 447.588455 446.110894 444.626419 443.134993 441.636578 440.131138 438.618635 437.099032 435.572290 434.038373 432.497242 430.948861 429.393191 427.830194 426.259834 424.682072 423.096870 421.504191 419.903998 418.296252 416.680915 415.057951 413.427322 411.788990 410.142917 408.489067 406.827403 405.157886 403.480481 401.795150 400.101857 398.400564 396.691236 394.973836 393.248329 391.514678 389.772848 388.022804 386.264509 384.497931 382.723033 380.939783 379.148145 377.348087 375.539574 373.722576 371.897058 370.062989 368.220338 366.369073 364.509164 362.640581 360.763295 358.877276 356.982496 355.078928 353.166544 351.245319 349.315226 347.376241 345.428340 343.471499 341.505696 339.530910 337.547119 335.554305 333.552448 331.541530 329.521536 327.492450 325.454257 323.406945 321.350501 319.284915 317.210178 315.126282 313.033221 310.930990 308.819585 306.699006 304.569251 302.430323 300.282225 298.124963 295.958544 293.782976 291.598273 289.404446 287.201512 284.989489 282.768397 280.538258 278.299099 276.050946 273.793830 271.527785 269.252847 266.969054 264.676450 262.375078 260.064989 257.746233 255.418866 253.082948 250.738539 248.385708 246.024524 243.655061 241.277398 238.891618 236.497808 234.096059 231.686469 229.269137 226.844171 224.411681 221.971784 219.524603 217.070264 214.608901 212.140652 209.665665 207.184088 204.696082 202.201809 199.701442 197.195158 194.683144 192.165591 189.642700 187.114680 184.581746 182.044123 179.502043 176.955749 174.405489 171.851523 169.294121 166.733559 164.170127 161.604122 159.035852 156.465637 153.893806 151.320700 148.746672 146.172084 143.597313 141.022747 138.448785 135.875842 133.304342 130.734725 128.167444 125.602966 123.041772
613.692120 612.922261 612.149464 611.373714 610.594994 609.813290 609.028585 608.240862 607.450105 606.656298 605.859424 605.059467 604.256408 603.450233 602.640923 601.828462 601.012831 600.194015 599.371995 598.546754 597.718273 596.886536 596.051524 595.213220 594.371604 593.526659 592.678366 591.826707 590.971663 590.113215 589.251344 588.386032 587.517258 586.645005 585.769251 584.889979 584.007168 583.120797 582.230849 581.337301 580.440135 579.539329 578.634863 577.726717 576.814870 575.899301 574.979989 574.056913 573.130051 572.199382 571.264885 570.326537 569.384318 568.438204 567.488174 566.534205 565.576276 564.614363 563.648443 562.678495 561.704494 560.726417 559.744242 558.757945 557.767502 556.772889 555.774083 554.771059 553.763793 552.752261 551.736438 550.716299 549.691820 548.662975 547.629739 546.592088 545.549994 544.503434 543.452380 542.396807 541.336689 540.272000 539.202712 538.128799 537.050235 535.966992 534.879043 533.786362 532.688919 531.586689 530.479642 529.367751 528.250987 527.129323 526.002730 524.871179 523.734641 522.593088 521.446489 520.294816 519.138039 517.976128 516.809054 515.636786 514.459294 513.276548 512.088517 510.895170 509.696477 508.492405 507.282925 506.068003 504.847610 503.621713 502.390279 501.153277 499.910675 498.662440 497.408539 496.148939 494.883607 493.612511 492.335616 491.052890 489.764298 488.469807 487.169383 485.862990 484.550596 483.232166 481.907664 480.577056 479.240307 477.897382 476.548245 475.192861 473.831194 472.463209 471.088870 469.708140 468.320984 466.927364 465.527245 464.120590 462.707362 461.287523 459.861038 458.427869 456.987979 455.541330 454.087885 452.627606 451.160455 449.686395 448.205388 446.717395 445.222379 443.720301 442.211124 440.694808 439.171315 437.640608 436.102647 434.557393 433.004809 431.444855 429.877493 428.302684 426.720389 425.130569 423.533187 421.928203 420.315577 418.695273 417.067250 415.431471 413.787897 412.136488 410.477208 408.810017 407.134877 405.451750 403.760598 402.061383 400.354068 398.638614 396.914984 395.183142 393.443049 391.694670 389.937967 388.172904 386.399446 384.617556 382.827199 381.028339 379.220942 377.404974 375.580400 373.747186 371.905300 370.054708 368.195378 366.327278 364.450377 362.564644 360.670049 358.766562 356.854154 354.932796 353.002462 351.063123 349.114754 347.157329 345.190824 343.215215 341.230478 339.236592 337.233536 335.221290 333.199835 331.169152 329.129225 327.080039 325.021578 322.953831 320.876784 318.790427 316.694751 314.589750 312.475415 310.351743 308.218732 306.076379 303.924685 301.763653 299.593286 297.413592 295.224577 293.026253 290.818632 288.601727 286.375557 284.140141 281.895500 279.641659 277.378644 275.106486 272.825217 270.534872 268.235490 265.927112 263.609784 261.283552 258.948469 256.604589 254.251972 251.890679 249.520777 247.142336 244.755431 242.360139 239.956544 237.544734 235.124800 232.696840 230.260955 227.817252 225.365843 222.906846 220.440385 217.966587 215.485588 212.997528 210.502554 208.000820 205.492485 202.977717 200.456689 197.929582 195.396584 192.857891 190.313707 187.764244 185.209721 182.650366 180.086417 177.518119 174.945727 172.369505 169.789729 167.206680 164.620654 162.031955 159.440897 156.847806 154.253020 151.656887 149.059767 146.462032 143.864066 141.266268 138.669046 136.072823 133.478037 130.885138 128.294590 125.706871
616.622058 615.856424 615.087860 614.316350 613.541878 612.764428 611.983984 611.200529 610.414048 609.624523 608.831938 608.036276 607.237521 606.435655 605.630661 604.822523 604.011222 603.196742 602.379065 601.558173 600.734048 599.906673 599.076030 598.242100 597.404865 596.564307 595.720407 594.873148 594.022509 593.168472 592.311018 591.450128 590.585783 589.717964 588.846650 587.971823 587.093462 586.211547 585.326060 584.436978 583.544283 582.647953 581.747969 580.844309 579.936952 579.025878 578.111066 577.192494 576.270140 575.343984 574.414003 573.480177 572.542482 571.600896 570.655398 569.705965 568.752575 567.795204 566.833830 565.868430 564.898980 563.925458 562.947840 561.966102 560.980220 559.990172 558.995931 557.997475 556.994779 555.987818 554.976567 553.961002 552.941098 551.916829 550.888171 549.855096 548.817581 547.775598 546.729123 545.678128 544.622587 543.562474 542.497763 541.428425 540.354435 539.275764 538.192387 537.104274 536.011399 534.913733 533.811248 532.703917 531.591710 530.474599 529.352555 528.225550 527.093553 525.956537 524.814471 523.667326 522.515071 521.357678 520.195114 519.027352 517.854358 516.676104 515.492558 514.303688 513.109464 511.909855 510.704827 509.494351 508.278393 507.056921 505.829903 504.597307 503.359100 502.115248 500.865720 499.610480 498.349497 497.082736 495.810164 494.531746 493.247449 491.957238 490.661078 489.358935 488.050775 486.736561 485.416259 484.089834 482.757249 481.418470 480.073460 478.722183 477.364604 476.000685 474.630390 473.253683 471.870526 470.480884 469.084717 467.681990 466.272665 464.856704 463.434070 462.004725 460.568630 459.125748 457.676040 456.219469 454.755994 453.285579 451.808184 450.323771 448.832300 447.333732 445.828029 444.315151 442.795059 441.267713 439.733075 438.191104 436.641761 435.085006 433.520800 431.949102 430.369874 428.783075 427.188666 425.586607 423.976858 422.359378 420.734129 419.101071 417.460164 415.811367 414.154642 412.489949 410.817248 409.136501 407.447666 405.750707 404.045582 402.332254 400.610683 398.880831 397.142659 395.396129 393.641204 391.877844 390.106013 388.325672 386.536786 384.739317 382.933229 381.118485 379.295049 377.462887 375.621963 373.772243 371.913692 370.046276 368.169963 366.284719 364.390513 362.487312 360.575086 358.653804 356.723437 354.783954 352.835329 350.877532 348.910538 346.934320 344.948853 342.954113 340.950076 338.936719 336.914022 334.881963 332.840523 330.789685 328.729431 326.659745 324.580613 322.492021 320.393958 318.286412 316.169376 314.042841 311.906801 309.761253 307.606194 305.441623 303.267541 301.083951 298.890859 296.688270 294.476194 292.254642 290.023629 287.783169 285.533281 283.273986 281.005307 278.727270 276.439904 274.143241 271.837316 269.522165 267.197831 264.864356 262.521789 260.170181 257.809586 255.440063 253.061673 250.674483 248.278562 245.873986 243.460832 241.039184 238.609130 236.170762 233.724178 231.269480 228.806775 226.336178 223.857805 221.371782 218.878239 216.377312 213.869143 211.353880 208.831680 206.302704 203.767122 201.225109 198.676849 196.122533 193.562361 190.996538 188.425281 185.848813 183.267367 180.681183 178.090512 175.495614 172.896758 170.294224 167.688301 165.079290 162.467501 159.853255 157.236886 154.618739 151.999169 149.378545 146.757248 144.135671 141.514221 138.893318 136.273395 133.654900 131.038294 128.424054
619.562370 618.801010 618.036728 617.269507 616.499332 615.726187 614.950054 614.170919 613.388764 612.603573 611.815329 611.024015 610.229616 609.432112 608.631488 607.827727 607.020810 606.210720 605.397441 604.580953 603.761240 602.938283 602.112064 601.282565 600.449769 599.613655 598.774207 597.931404 597.085229 596.235662 595.382685 594.526278 593.666421 592.803096 591.936283 591.065962 590.192114 589.314717 588.433753 587.549201 586.661041 585.769251 584.873812 583.974703 583.071903 582.165390 581.255143 580.341142 579.423364 578.501788 577.576393 576.647155 575.714054 574.777067 573.836171 572.891344 571.942564 570.989807 570.033050 569.072271 568.107447 567.138552 566.165565 565.188461 564.207217 563.221808 562.232210 561.238398 560.240349 559.238037 558.231438 557.220526 556.205277 555.185664 554.161663 553.133247 552.100392 551.063070 550.021255 548.974922 547.924043 546.868593 545.808543 544.743867 543.674538 542.600527 541.521809 540.438354 539.350135 538.257124 537.159293 536.056612 534.949054 533.836589 532.719188 531.596823 530.469463 529.337079 528.199642 527.057122 525.909488 524.756709 523.598757 522.435599 521.267205 520.093544 518.914585 517.730296 516.540646 515.345602 514.145133 512.939207 511.727791 510.510853 509.288360 508.060278 506.826576 505.587219 504.342175 503.091408 501.834887 500.572576 499.304441 498.030448 496.750562 495.464748 494.172972 492.875199 491.571392 490.261517 488.945537 487.623417 486.295121 484.960613 483.619856 482.272813 480.919448 479.559724 478.193604 476.821050 475.442025 474.056491 472.664412 471.265748 469.860461 468.448515 467.029869 465.604485 464.172326 462.733352 461.287523 459.834802 458.375148 456.908523 455.434887 453.954199 452.466422 450.971514 449.469435 447.960147 446.443607 444.919777 443.388616 441.850083 440.304139 438.750741 437.189850 435.621425 434.045426 432.461810 430.870539 429.271570 427.664862 426.050376 424.428069 422.797902 421.159832 419.513820 417.859824 416.197804 414.527718 412.849527 411.163189 409.468663 407.765910 406.054890 404.335561 402.607884 400.871819 399.127325 397.374365 395.612897 393.842884 392.064286 390.277063 388.481179 386.676595 384.863272 383.041173 381.210262 379.370501 377.521854 375.664285 373.797758 371.922238 370.037690 368.144080 366.241375 364.329541 362.408546 360.478358 358.538946 356.590278 354.632326 352.665060 350.688452 348.702474 346.707099 344.702302 342.688057 340.664342 338.631131 336.588405 334.536141 332.474321 330.402926 328.321937 326.231341 324.131120 322.021263 319.901758 317.772593 315.633761 313.485253 311.327064 309.159191 306.981630 304.794383 302.597450 300.390835 298.174544 295.948585 293.712967 291.467704 289.212809 286.948301 284.674198 282.390524 280.097302 277.794562 275.482334 273.160651 270.829552 268.489074 266.139264 263.780166 261.411832 259.034316 256.647675 254.251972 251.847272 249.433646 247.011167 244.579914 242.139971 239.691425 237.234370 234.768903 232.295127 229.813151 227.323089 224.825060 222.319189 219.805609 217.284455 214.755874 212.220014 209.677033 207.127095 204.570372 202.007043 199.437293 196.861317 194.279317 191.691504 189.098095 186.499319 183.895412 181.286619 178.673196 176.055408 173.433530 170.807846 168.178651 165.546253 162.910968 160.273125 157.633065 154.991139 152.347713 149.703162 147.057877 144.412260 141.766729 139.121712 136.477655 133.835016 131.194269
622.513056 621.756020 620.996069 620.233187 619.467359 618.698568 617.926799 617.152033 616.374256 615.593451 614.809600 614.022687 613.232695 612.439608 611.643407 610.844076 610.041597 609.235952 608.427125 607.615097 606.799851 605.981368 605.159631 604.334620 603.506318 602.674707 601.839767 601.001481 600.159828 599.314791 598.466349 597.614485 596.759177 595.900408 595.038157 594.172404 593.303130 592.430314 591.553936 590.673977 589.790415 588.903230 588.012402 587.117909 586.219730 585.317844 584.412230 583.502867 582.589732 581.672804 580.752062 579.827483 578.899045 577.966726 577.030502 576.090353 575.146254 574.198183 573.246116 572.290031 571.329905 570.365712 569.397431 568.425036 567.448504 566.467811 565.482932 564.493842 563.500518 562.502934 561.501065 560.494885 559.484371 558.469495 557.450233 556.426558 555.398445 554.365866 553.328797 552.287209 551.241077 550.190374 549.135072 548.075144 547.010563 545.941301 544.867331 543.788623 542.705151 541.616886 540.523798 539.425861 538.323043 537.215318 536.102654 534.985024 533.862396 532.734741 531.602030 530.464232 529.321316 528.173253 527.020010 525.861558 524.697865 523.528899 522.354630 521.175025 519.990052 518.799680 517.603876 516.402607 515.195841 513.983544 512.765684 511.542228 510.313142 509.078391 507.837943 506.591764 505.339818 504.082071 502.818490 501.549038 500.273681 498.992384 497.705111 496.411827 495.112496 493.807081 492.495547 491.177857 489.853974 488.523862 487.187485 485.844804 484.495782 483.140383 481.778568 480.410299 479.035538 477.654248 476.266389 474.871924 473.470814 472.063018 470.648500 469.227219 467.799136 466.364211 464.922405 463.473678 462.017990 460.555301 459.085571 457.608758 456.124823 454.633726 453.135424 451.629877 450.117045 448.596886 447.069359 445.534422 443.992034 442.442154 440.884739 439.319749 437.747141 436.166874 434.578905 432.983193 431.379696 429.768372 428.149178 426.522074 424.887015 423.243962 421.592870 419.933700 418.266407 416.590951 414.907290 413.215381 411.515183 409.806654 408.089753 406.364437 404.630667 402.888400 401.137595 399.378212 397.610210 395.833547 394.048185 392.254083 390.451201 388.639499 386.818938 384.989480 383.151086 381.303717 379.447335 377.581904 375.707385 373.823743 371.930941 370.028944 368.117716 366.197223 364.267430 362.328305 360.379815 358.421927 356.454610 354.477833 352.491567 350.495783 348.490451 346.475545 344.451039 342.416906 340.373122 338.319665 336.256510 334.183638 332.101028 330.008661 327.906520 325.794589 323.672852 321.541296 319.399910 317.248682 315.087605 312.916671 310.735875 308.545213 306.344684 304.134287 301.914026 299.683905 297.443929 295.194109 292.934454 290.664980 288.385701 286.096636 283.797806 281.489236 279.170953 276.842986 274.505368 272.158136 269.801328 267.434987 265.059160 262.673897 260.279251 257.875279 255.462044 253.039610 250.608047 248.167429 245.717836 243.259351 240.792062 238.316061 235.831448 233.338326 230.836803 228.326996 225.809023 223.283013 220.749096 218.207413 215.658109 213.101336 210.537253 207.966026 205.387830 202.802846 200.211262 197.613275 195.009092 192.398925 189.782997 187.161541 184.534795 181.903011 179.266449 176.625378 173.980078 171.330841 168.677967 166.021770 163.362573 160.700713 158.036537 155.370406 152.702691 150.033779 147.364069 144.693973 142.023918 139.354344 136.685707 134.018477
625.474117 624.721453 623.965883 623.207391 622.445960 621.681574 620.914218 620.143874 619.370526 618.594158 617.814752 617.032293 616.246762 615.458143 614.666419 613.871572 613.073586 612.272441 611.468122 610.660609 609.849885 609.035933 608.218733 607.398268 606.574518 605.747467 604.917094 604.083382 603.246311 602.405862 601.562016 600.714754 599.864056 599.009903 598.152276 597.291153 596.426515 595.558343 594.686615 593.811312 592.932413 592.049897 591.163744 590.273932 589.380440 588.483248 587.582333 586.677675 585.769251 584.857040 583.941020 583.021169 582.097463 581.169882 580.238402 579.303001 578.363655 577.420342 576.473038 575.521721 574.566366 573.606949 572.643448 571.675838 570.704094 569.728193 568.748110 567.763820 566.775299 565.782521 564.785461 563.784095 562.778395 561.768338 560.753896 559.735044 558.711755 557.684004 556.651763 555.615006 554.573707 553.527837 552.477369 551.422277 550.362532 549.298107 548.228973 547.155103 546.076467 544.993039 543.904787 542.811685 541.713702 540.610809 539.502978 538.390177 537.272377 536.149548 535.021660 533.888683 532.750585 531.607335 530.458903 529.305258 528.146367 526.982200 525.812724 524.637907 523.457717 522.272122 521.081088 519.884584 518.682576 517.475030 516.261914 515.043193 513.818834 512.588802 511.353064 510.111585 508.864330 507.611264 506.352352 505.087560 503.816851 502.540189 501.257540 499.968866 498.674132 497.373301 496.066336 494.753200 493.433857 492.108269 490.776399 489.438209 488.093661 486.742716 485.385338 484.021487 482.651125 481.274212 479.890711 478.500581 477.103784 475.700280 474.290029 472.872991 471.449126 470.018394 468.580755 467.136168 465.684592 464.225987 462.760311 461.287523 459.807582 458.320447 456.826075 455.324425 453.815456 452.299124 450.775389 449.244207 447.705536 446.159335 444.605559 443.044167 441.475116 439.898364 438.313866 436.721580 435.121463 433.513473 431.897565 430.273696 428.641824 427.001905 425.353896 423.697754 422.033435 420.360896 418.680094 416.990985 415.293527 413.587677 411.873391 410.150627 408.419342 406.679493 404.931037 403.173933 401.408138 399.633609 397.850305 396.058185 394.257206 392.447327 390.628509 388.800709 386.963887 385.118004 383.263019 381.398894 379.525589 377.643066 375.751286 373.850213 371.939808 370.020034 368.090857 366.152240 364.204149 362.246548 360.279405 358.302686 356.316359 354.320393 352.314757 350.299421 348.274355 346.239533 344.194927 342.140510 340.076259 338.002147 335.918154 333.824258 331.720437 329.606672 327.482947 325.349244 323.205548 321.051847 318.888128 316.714380 314.530596 312.336769 310.132893 307.918965 305.694984 303.460952 301.216871 298.962746 296.698584 294.424397 292.140195 289.845994 287.541810 285.227665 282.903581 280.569584 278.225703 275.871969 273.508419 271.135089 268.752023 266.359266 263.956867 261.544879 259.123360 256.692369 254.251972 251.802239 249.343244 246.875066 244.397788 241.911497 239.416289 236.912261 234.399518 231.878169 229.348330 226.810122 224.263673 221.709117 219.146593 216.576250 213.998241 211.412728 208.819878 206.219868 203.612882 200.999111 198.378756 195.752025 193.119135 190.480313 187.835794 185.185823 182.530656 179.870556 177.205798 174.536669 171.863466 169.186495 166.506076 163.822541 161.136232 158.447505 155.756728 153.064282 150.370563 147.675979 144.980951 142.285918 139.591331 136.897657
628.445553 627.697311 626.946172 626.192118 625.435135 624.675205 623.912313 623.146441 622.377574 621.605695 620.830787 620.052834 619.271817 618.487721 617.700527 616.910219 616.116779 615.320189 614.520432 613.717490 612.911345 612.101979 611.289374 610.473511 609.654372 608.831938 608.006191 607.177111 606.344681 605.508880 604.669690 603.827091 602.981063 602.131588 601.278645 600.422214 599.562276 598.698809 597.831795 596.961212 596.087040 595.209257 594.327844 593.442779 592.554041 591.661609 590.765461 589.865575 588.961930 588.054504 587.143275 586.228220 585.309318 584.386545 583.459879 582.529297 581.594777 580.656294 579.713826 578.767349 577.816840 576.862274 575.903629 574.940879 573.974000 573.002968 572.027758 571.048345 570.064706 569.076813 568.084642 567.088168 566.087365 565.082206 564.072667 563.058720 562.040340 561.017499 559.990172 558.958330 557.921948 556.880998 555.835452 554.785282 553.730462 552.670962 551.606755 550.537812 549.464104 548.385603 547.302281 546.214106 545.121052 544.023086 542.920181 541.812306 540.699431 539.581525 538.458558 537.330500 536.197318 535.058983 533.915463 532.766726 531.612740 530.453474 529.288895 528.118971 526.943670 525.762958 524.576803 523.385171 522.188030 520.985345 519.777082 518.563208 517.343688 516.118489 514.887574 513.650910 512.408462 511.160193 509.906069 508.646054 507.380111 506.108206 504.830301 503.546360 502.256346 500.960222 499.657952 498.349497 497.034820 495.713884 494.386650 493.053080 491.713136 490.366779 489.013970 487.654670 486.288841 484.916443 483.537435 482.151779 480.759435 479.360361 477.954519 476.541866 475.122363 473.695969 472.262642 470.822342 469.375026 467.920653 466.459182 464.990570 463.514776 462.031756 460.541469 459.043872 457.538922 456.026576 454.506792 452.979525 451.444734 449.902374 448.352402 446.794775 445.229447 443.656377 442.075519 440.486830 438.890266 437.285782 435.673334 434.052877 432.424369 430.787763 429.143016 427.490083 425.828919 424.159481 422.481723 420.795601 419.101071 417.398088 415.686608 413.966587 412.237980 410.500743 408.754833 407.000204 405.236814 403.464619 401.683575 399.893639 398.094767 396.286918 394.470047 392.644114 390.809075 388.964888 387.111513 385.248908 383.377031 381.495843 379.605303 377.705372 375.796011 373.877180 371.948841 370.010957 368.063490 366.106404 364.139663 362.163232 360.177075 358.181160 356.175453 354.159921 352.134533 350.099259 348.054069 345.998933 343.933825 341.858717 339.773585 337.678402 335.573147 333.457797 331.332331 329.196729 327.050975 324.895050 322.728941 320.552633 318.366114 316.169376 313.962408 311.745205 309.517762 307.280076 305.032147 302.773976 300.505567 298.226926 295.938062 293.638985 291.329709 289.010250 286.680627 284.340862 281.990979 279.631006 277.260974 274.880917 272.490874 270.090884 267.680993 265.261249 262.831704 260.392416 257.943444 255.484853 253.016713 250.539097 248.052084 245.555757 243.050205 240.535522 238.011806 235.479162 232.937701 230.387538 227.828797 225.261605 222.686098 220.102418 217.510713 214.911139 212.303859 209.689044 207.066873 204.437530 201.801212 199.158122 196.508470 193.852479 191.190378 188.522406 185.848813 183.169860 180.485814 177.796957 175.103581 172.405987 169.704490 166.999416 164.291104 161.579903 158.866177 156.150304 153.432673 150.713688 147.993768 145.273345 142.552867 139.832797
631.427364 630.683594 629.936934 629.187370 628.434884 627.679461 626.921084 626.159736 625.395402 624.628064 623.857706 623.084311 622.307862 621.528341 620.745732 619.960016 619.171178 618.379198 617.584059 616.785743 615.984233 615.179510 614.371556 613.560352 612.745881 611.928123 611.107059 610.282672 609.454941 608.623848 607.789374 606.951498 606.110202 605.265465 604.417269 603.565592 602.710416 601.851719 600.989481 600.123682 599.254301 598.381317 597.504710 596.624458 595.740539 594.852934 593.961619 593.066573 592.167776 591.265203 590.358834 589.448646 588.534616 587.616722 586.694942 585.769251 584.839628 583.906049 582.968490 582.026927 581.081338 580.131698 579.177983 578.220169 577.258231 576.292145 575.321886 574.347429 573.368750 572.385821 571.398620 570.407118 569.411292 568.411115 567.406560 566.397601 565.384213 564.366367 563.344037 562.317197 561.285818 560.249874 559.209337 558.164178 557.114371 556.059885 555.000695 553.936769 552.868081 551.794601 550.716299 549.633146 548.545113 547.452170 546.354287 545.251434 544.143580 543.030695 541.912748 540.789707 539.661543 538.528223 537.389715 536.245989 535.097011 533.942750 532.783173 531.618248 530.447941 529.272219 528.091050 526.904400 525.712235 524.514520 523.311223 522.102308 520.887741 519.667487 518.441511 517.209778 515.972252 514.728898 513.479679 512.224561 510.963505 509.696477 508.423438 507.144352 505.859183 504.567891 503.270441 501.966793 500.656910 499.340754 498.018286 496.689467 495.354259 494.012622 492.664516 491.309904 489.948743 488.580996 487.206620 485.825577 484.437825 483.043324 481.642032 480.233908 478.818912 477.397001 475.968133 474.532267 473.089360 471.639371 470.182255 468.717972 467.246477 465.767729 464.281682 462.788295 461.287523 459.779323 458.263651 456.740463 455.209714 453.671361 452.125359 450.571662 449.010227 447.441009 445.863963 444.279043 442.686204 441.085402 439.476590 437.859724 436.234757 434.601645 432.960341 431.310800 429.652977 427.986825 426.312298 424.629352 422.937939 421.238015 419.529534 417.812449 416.086716 414.352288 412.609121 410.857168 409.096384 407.326725 405.548144 403.760598 401.964041 400.158428 398.343716 396.519860 394.686816 392.844540 390.992990 389.132121 387.261891 385.382258 383.493179 381.594613 379.686519 377.768855 375.841582 373.904658 371.958046 370.001706 368.035599 366.059689 364.073938 362.078310 360.072770 358.057282 356.031812 353.996328 351.950797 349.895187 347.829468 345.753611 343.667586 341.571368 339.464929 337.348244 335.221290 333.084044 330.936486 328.778594 326.610352 324.431742 322.242748 320.043359 317.833561 315.613344 313.382702 311.141626 308.890113 306.628162 304.355771 302.072943 299.779683 297.475998 295.161897 292.837393 290.502499 288.157234 285.801618 283.435675 281.059432 278.672917 276.276165 273.869211 271.452097 269.024865 266.587564 264.140245 261.682965 259.215782 256.738761 254.251972 251.755488 249.249386 246.733752 244.208672 241.674241 239.130559 236.577730 234.015865 231.445082 228.865503 226.277259 223.680484 221.075324 218.461927 215.840452 213.211063 210.573933 207.929244 205.277183 202.617949 199.951748 197.278794 194.599313 191.913539 189.221714 186.524094 183.820941 181.112532 178.399152 175.681098 172.958680 170.232217 167.502042 164.768502 162.031955 159.292772 156.551339 153.808055 151.063333 148.317603 145.571307 142.824904
634.419550 633.680300 632.938171 632.193145 631.445208 630.694342 629.940531 629.183759 628.424009 627.661265 626.895510 626.126726 625.354897 624.580006 623.802035 623.020966 622.236783 621.449468 620.659003 619.865370 619.068550 618.268527 617.465281 616.658794 615.849048 615.036024 614.219703 613.400067 612.577095 611.750770 610.921071 610.087979 609.251476 608.411540 607.568152 606.721292 605.870940 605.017075 604.159678 603.298727 602.434202 601.566081 600.694345 599.818972 598.939940 598.057227 597.170814 596.280676 595.386794 594.489144 593.587704 592.682452 591.773366 590.860422 589.943598 589.022871 588.098217 587.169614 586.237037 585.300463 584.359869 583.415229 582.466521 581.513719 580.556799 579.595736 578.630506 577.661083 576.687443 575.709559 574.727406 573.740959 572.750191 571.755076 570.755589 569.751701 568.743388 567.730622 566.713375 565.691622 564.665333 563.634482 562.599041 561.558982 560.514276 559.464895 558.410811 557.351995 556.288417 555.220049 554.146862 553.068824 551.985908 550.898082 549.805318 548.707583 547.604848 546.497081 545.384252 544.266330 543.143283 542.015079 540.881686 539.743073 538.599207 537.450055 536.295585 535.135764 533.970559 532.799936 531.623861 530.442301 529.255222 528.062590 526.864369 525.660526 524.451025 523.235831 522.014908 520.788222 519.555736 518.317415 517.073221 515.823119 514.567071 513.305042 512.036992 510.762886 509.482685 508.196352 506.903848 505.605135 504.300175 502.988928 501.671357 500.347421 499.017081 497.680297 496.337030 494.987240 493.630885 492.267926 490.898322 489.522032 488.139014 486.749227 485.352629 483.949179 482.538835 481.121554 479.697293 478.266011 476.827664 475.382209 473.929602 472.469801 471.002762 469.528440 468.046792 466.557774 465.061341 463.557448 462.046050 460.527104 459.000563 457.466382 455.924517 454.374921 452.817548 451.252354 449.679291 448.098315 446.509377 444.912434 443.307436 441.694339 440.073096 438.443660 436.805983 435.160020 433.505723 431.843045 430.171939 428.492359 426.804256 425.107584 423.402296 421.688345 419.965683 418.234264 416.494040 414.744965 412.986992 411.220073 409.444163 407.659214 405.865181 404.062016 402.249675 400.428110 398.597276 396.757128 394.907621 393.048709 391.180347 389.302492 387.415099 385.518124 383.611524 381.695257 379.769279 377.833548 375.888023 373.932663 371.967428 369.992277 368.007170 366.012070 364.006939 361.991738 359.966431 357.930983 355.885358 353.829523 351.763443 349.687088 347.600425 345.503425 343.396057 341.278295 339.150112 337.011481 334.862378 332.702782 330.532669 328.352020 326.160817 323.959042 321.746681 319.523719 317.290145 315.045950 312.791124 310.525663 308.249563 305.962821 303.665439 301.357420 299.038769 296.709494 294.369605 292.019117 289.658045 287.286409 284.904230 282.511534 280.108350 277.694710 275.270649 272.836206 270.391425 267.936352 265.471038 262.995538 260.509912 258.014222 255.508539 252.992935 250.467487 247.932280 245.387403 242.832948 240.269015 237.695711 235.113146 232.521439 229.920713 227.311098 224.692733 222.065762 219.430337 216.786616 214.134768 211.474966 208.807395 206.132245 203.449718 200.760022 198.063376 195.360008 192.650156 189.934069 187.212004 184.484231 181.751029 179.012691 176.269520 173.521830 170.769949 168.014217 165.254987 162.492626 159.727514 156.960045 154.190628 151.419685 148.647657 145.874997
637.422110 636.687430 635.949881 635.209444 634.466105 633.719848 632.970654 632.218510 631.463396 630.705298 629.944197 629.180078 628.412923 627.642715 626.869436 626.093069 625.313597 624.531002 623.745265 622.956370 622.164298 621.369031 620.570551 619.768838 618.963876 618.155644 617.344124 616.529297 615.711145 614.889647 614.064784 613.236538 612.404887 611.569813 610.731296 609.889315 609.043851 608.194882 607.342389 606.486350 605.626746 604.763555 603.896755 603.026327 602.152247 601.274496 600.393051 599.507890 598.618991 597.726332 596.829892 595.929646 595.025574 594.117651 593.205855 592.290163 591.370552 590.446998 589.519477 588.587966 587.652441 586.712878 585.769251 584.821538 583.869713 582.913751 581.953628 580.989318 580.020796 579.048036 578.071013 577.089700 576.104073 575.114103 574.119766 573.121034 572.117880 571.110278 570.098200 569.081619 568.060507 567.034837 566.004580 564.969708 563.930194 562.886008 561.837121 560.783505 559.725130 558.661968 557.593988 556.521160 555.443455 554.360843 553.273292 552.180773 551.083255 549.980706 548.873095 547.760391 546.642561 545.519575 544.391400 543.258004 542.119353 540.975416 539.826159 538.671548 537.511552 536.346135 535.175264 533.998904 532.817023 531.629583 530.436552 529.237894 528.033573 526.823554 525.607802 524.386280 523.158952 521.925782 520.686732 519.441767 518.190849 516.933940 515.671004 514.402001 513.126895 511.845646 510.558216 509.264567 507.964659 506.658453 505.345909 504.026988 502.701651 501.369855 500.031563 498.686731 497.335321 495.977289 494.612596 493.241200 491.863058 490.478129 489.086371 487.687740 486.282195 484.869692 483.450188 482.023640 480.590004 479.149236 477.701293 476.246129 474.783701 473.313965 471.836874 470.352385 468.860451 467.361028 465.854069 464.339530 462.817363 461.287523 459.749964 458.204639 456.651501 455.090504 453.521600 451.944742 450.359884 448.766977 447.165975 445.556829 443.939491 442.313915 440.680051 439.037853 437.387270 435.728257 434.060763 432.384741 430.700143 429.006919 427.305022 425.594403 423.875013 422.146804 420.409727 418.663734 416.908777 415.144808 413.371777 411.589637 409.798340 407.997837 406.188082 404.369025 402.540621 400.702820 398.855577 396.998845 395.132576 393.256725 391.371245 389.476091 387.571217 385.656577 383.732129 381.797827 379.853627 377.899486 375.935361 373.961210 371.976992 369.982664 367.978187 365.963521 363.938626 361.903465 359.857999 357.802191 355.736006 353.659409 351.572365 349.474842 347.366807 345.248229 343.119079 340.979327 338.828947 336.667912 334.496197 332.313779 330.120637 327.916749 325.702097 323.476663 321.240434 318.993394 316.735533 314.466840 312.187309 309.896933 307.595710 305.283637 302.960718 300.626955 298.282354 295.926926 293.560682 291.183636 288.795807 286.397215 283.987885 281.567843 279.137120 276.695751 274.243775 271.781232 269.308169 266.824635 264.330686 261.826379 259.311779 256.786952 254.251972 251.706917 249.151869 246.586918 244.012157 241.427686 238.833611 236.230044 233.617102 230.994913 228.363605 225.723319 223.074201 220.416402 217.750086 215.075420 212.392581 209.701756 207.003138 204.296931 201.583347 198.862608 196.134947 193.400605 190.659834 187.912897 185.160070 182.401636 179.637894 176.869153 174.095734 171.317971 168.536212 165.750819 162.962164 160.170638 157.376643 154.580599 151.782938 148.984111
640.435042 639.704982 638.972062 638.236266 637.497576 636.755977 636.011453 635.263987 634.513562 633.760162 633.003769 632.244367 631.481939 630.716468 629.947936 629.176325 628.401619 627.623798 626.842847 626.058746 625.271478 624.481024 623.687366 622.890486 622.090365 621.286983 620.480324 619.670366 618.857092 618.040482 617.220516 616.397175 615.570440 614.740290 613.906705 613.069666 612.229152 611.385143 610.537618 609.686557 608.831938 607.973741 607.111944 606.246527 605.377467 604.504744 603.628335 602.748218 601.864372 600.976774 600.085403 599.190234 598.291246 597.388416 596.481720 595.571136 594.656640 593.738208 592.815817 591.889444 590.959063 590.024651 589.086183 588.143635 587.196982 586.246199 585.291261 584.332143 583.368819 582.401264 581.429451 580.453355 579.472949 578.488207 577.499103 576.505610 575.507701 574.505348 573.498524 572.487202 571.471354 570.450952 569.425968 568.396374 567.362140 566.323239 565.279641 564.231317 563.178237 562.120373 561.057695 559.990172 558.917774 557.840470 556.758231 555.671026 554.578822 553.481590 552.379296 551.271911 550.159402 549.041736 547.918881 546.790805 545.657475 544.518857 543.374919 542.225627 541.070947 539.910845 538.745287 537.574239 536.397665 535.215531 534.027803 532.834443 531.635418 530.430690 529.220224 528.003984 526.781932 525.554033 524.320249 523.080542 521.834876 520.583212 519.325512 518.061739 516.791853 515.515816 514.233588 512.945132 511.650406 510.349372 509.041989 507.728217 506.408016 505.081345 503.748163 502.408429 501.062101 499.709138 498.349497 496.983137 495.610015 494.230089 492.843315 491.449651 490.049052 488.641477 487.226880 485.805217 484.376445 482.940519 481.497394 480.047025 478.589367 477.124374 475.652001 474.172202 472.684931 471.190142 469.687788 468.177822 466.660198 465.134869 463.601787 462.060904 460.512175 458.955549 457.390980 455.818420 454.237819 452.649130 451.052304 449.447292 447.834046 446.212516 444.582653 442.944408 441.297731 439.642574 437.978886 436.306618 434.625720 432.936143 431.237836 429.530750 427.814834 426.090040 424.356316 422.613613 420.861882 419.101071 417.331132 415.552014 413.763668 411.966044 410.159093 408.342765 406.517011 404.681781 402.837028 400.982701 399.118753 397.245135 395.361800 393.468699 391.565784 389.653010 387.730328 385.797693 383.855059 381.902379 379.939609 377.966705 375.983621 373.990315 371.986743 369.972863 367.948634 365.914014 363.868963 361.813441 359.747410 357.670832 355.583670 353.485888 351.377451 349.258324 347.128476 344.987873 342.836486 340.674285 338.501242 336.317330 334.122524 331.916800 329.700136 327.472512 325.233907 322.984306 320.723692 318.452053 316.169376 313.875652 311.570874 309.255036 306.928137 304.590176 302.241154 299.881077 297.509951 295.127789 292.734601 290.330406 287.915222 285.489071 283.051981 280.603979 278.145101 275.675381 273.194862 270.703588 268.201608 265.688976 263.165750 260.631991 258.087768 255.533153 252.968223 250.393061 247.807756 245.212402 242.607098 239.991951 237.367073 234.732584 232.088607 229.435278 226.772734 224.101123 221.420601 218.731329 216.033479 213.327230 210.612770 207.890296 205.160014 202.422140 199.676899 196.924527 194.165270 191.399385 188.627140 185.848813 183.064697 180.275093 177.480318 174.680700 171.876579 169.068312 166.256266 163.440825 160.622386 157.801364 154.978185 152.153294
643.458344 642.732955 642.004715 641.273608 640.539618 639.802730 639.062926 638.320190 637.574506 636.825856 636.074224 635.319593 634.561946 633.801265 633.037534 632.270734 631.500848 630.727859 629.951748 629.172498 628.390090 627.604506 626.815728 626.023737 625.228516 624.430044 623.628303 622.823274 622.014938 621.203276 620.388267 619.569894 618.748135 617.922971 617.094381 616.262347 615.426847 614.587861 613.745368 612.899349 612.049780 611.196643 610.339915 609.479576 608.615603 607.747975 606.876670 606.001667 605.122942 604.240475 603.354242 602.464220 601.570388 600.672721 599.771198 598.865794 597.956486 597.043251 596.126065 595.204903 594.279742 593.350557 592.417324 591.480019 590.538616 589.593089 588.643416 587.689568 586.731522 585.769251 584.802730 583.831932 582.856831 581.877400 580.893613 579.905443 578.912862 577.915844 576.914361 575.908385 574.897888 573.882842 572.863220 571.838992 570.810129 569.776603 568.738385 567.695446 566.647755 565.595283 564.538001 563.475877 562.408881 561.336984 560.260154 559.178359 558.091570 556.999753 555.902878 554.800913 553.693825 552.581582 551.464151 550.341500 549.213595 548.080403 546.941891 545.798024 544.648769 543.494092 542.333957 541.168331 539.997178 538.820463 537.638150 536.450205 535.256590 534.057270 532.852208 531.641368 530.424712 529.202204 527.973805 526.739479 525.499188 524.252893 523.000555 521.742137 520.477599 519.206902 517.930006 516.646872 515.357461 514.061730 512.759642 511.451153 510.136224 508.814814 507.486880 506.152382 504.811277 503.463522 502.109077 500.747896 499.379939 498.005161 496.623518 495.234968 493.839467 492.436969 491.027431 489.610807 488.187053 486.756124 485.317973 483.872556 482.419827 480.959738 479.492245 478.017300 476.534856 475.044866 473.547283 472.042060 470.529148 469.008500 467.480068 465.943803 464.399656 462.847579 461.287523 459.719439 458.143277 456.558989 454.966523 453.365831 451.756862 450.139566 448.513894 446.879794 445.237216 443.586109 441.926422 440.258106 438.581107 436.895377 435.200862 433.497512 431.785277 430.064103 428.333940 426.594737 424.846442 423.089004 421.322371 419.546492 417.761315 415.966789 414.162863 412.349486 410.526607 408.694175 406.852138 405.000447 403.139051 401.267900 399.386943 397.496131 395.595415 393.684744 391.764071 389.833346 387.892521 385.941549 383.980382 382.008973 380.027275 378.035243 376.032831 374.019993 371.996687 369.962868 367.918493 365.863520 363.797907 361.721614 359.634601 357.536829 355.428260 353.308857 351.178583 349.037404 346.885287 344.722198 342.548106 340.362981 338.166794 335.959518 333.741127 331.511597 329.270905 327.019030 324.755954 322.481658 320.196127 317.899348 315.591310 313.272003 310.941420 308.599557 306.246411 303.881983 301.506276 299.119296 296.721051 294.311553 291.890816 289.458859 287.015702 284.561370 282.095891 279.619298 277.131625 274.632912 272.123203 269.602547 267.070995 264.528605 261.975438 259.411562 256.837047 254.251972 251.656418 249.050475 246.434235 243.807799 241.171273 238.524771 235.868411 233.202319 230.526630 227.841485 225.147031 222.443425 219.730831 217.009423 214.279382 211.540898 208.794170 206.039409 203.276832 200.506670 197.729160 194.944555 192.153114 189.355111 186.550830 183.740568 180.924633 178.103348 175.277047 172.446079 169.610808 166.771609 163.928875 161.083012 158.234444 155.383608
646.492016 645.771346 645.047835 644.321469 643.592230 642.860103 642.125071 641.387118 640.646226 639.902380 639.155561 638.405754 637.652942 636.897106 636.138229 635.376295 634.611285 633.843182 633.071967 632.297624 631.520133 630.739477 629.955636 629.168593 628.378329 627.584825 626.788063 625.988022 625.184684 624.378030 623.568040 622.754694 621.937974 621.117857 620.294326 619.467359 618.636937 617.803038 616.965642 616.124729 615.280277 614.432265 613.580672 612.725477 611.866658 611.004193 610.138061 609.268239 608.394706 607.517438 606.636414 605.751610 604.863005 603.970574 603.074295 602.174144 601.270098 600.362133 599.450225 598.534350 597.614485 596.690603 595.762682 594.830696 593.894620 592.954429 592.010098 591.061602 590.108914 589.152009 588.190860 587.225442 586.255728 585.281691 584.303305 583.320542 582.333376 581.341778 580.345721 579.345178 578.340121 577.330520 576.316348 575.297576 574.274175 573.246116 572.213370 571.175908 570.133698 569.086713 568.034921 566.978292 565.916796 564.850401 563.779077 562.702793 561.621516 560.535216 559.443860 558.347416 557.245852 556.139135 555.027232 553.910110 552.787737 551.660077 550.527098 549.388765 548.245045 547.095902 545.941301 544.781209 543.615589 542.444406 541.267624 540.085207 538.897119 537.703324 536.503784 535.298463 534.087323 532.870326 531.647436 530.418614 529.183821 527.943020 526.696170 525.443234 524.184172 522.918943 521.647509 520.369830 519.085864 517.795571 516.498910 515.195841 513.886321 512.570308 511.247762 509.918639 508.582898 507.240494 505.891386 504.535530 503.172883 501.803400 500.427037 499.043751 497.653496 496.256227 494.851900 493.440470 492.021889 490.596113 489.163096 487.722790 486.275150 484.820128 483.357677 481.887750 480.410299 478.925276 477.432633 475.932322 474.424294 472.908500 471.384891 469.853418 468.314032 466.766682 465.211319 463.647892 462.076352 460.496647 458.908728 457.312542 455.708040 454.095169 452.473878 450.844116 449.205831 447.558972 445.903485 444.239318 442.566421 440.884739 439.194221 437.494814 435.786465 434.069122 432.342731 430.607240 428.862596 427.108745 425.345636 423.573214 421.791427 420.000222 418.199546 416.389346 414.569569 412.740163 410.901074 409.052251 407.193641 405.325192 403.446852 401.558569 399.660291 397.751968 395.833547 393.904979 391.966213 390.017198 388.057885 386.088225 384.108168 382.117667 380.116673 378.105139 376.083018 374.050263 372.006830 369.952672 367.887747 365.812009 363.725417 361.627929 359.519504 357.400101 355.269681 353.128207 350.975640 348.811947 346.637091 344.451039 342.253759 340.045220 337.825393 335.594249 333.351764 331.097911 328.832668 326.556013 324.267927 321.968393 319.657396 317.334921 315.000957 312.655497 310.298532 307.930060 305.550078 303.158588 300.755593 298.341101 295.915122 293.477668 291.028755 288.568403 286.096636 283.613479 281.118963 278.613123 276.095997 273.567627 271.028060 268.477349 265.915548 263.342719 260.758928 258.164246 255.558750 252.942522 250.315649 247.678226 245.030353 242.372136 239.703689 237.025131 234.336589 231.638197 228.930099 226.212443 223.485386 220.749096 218.003747 215.249523 212.486616 209.715229 206.935574 204.147873 201.352359 198.549275 195.738876 192.921426 190.097205 187.266502 184.429619 181.586871 178.738586 175.885108 173.026791 170.164006 167.297139 164.426591 161.552777 158.676132
