ncols        190
nrows        28
xllcorner    4057.5
yllcorner    -3467.5
cellsize     10.000000000000
NODATA_value  -9999
165.95843505859375 168.4018402099609375 170.8907318115234375 173.425262451171875 176.0055999755859375 178.631866455078125 181.3042449951171875 184.02288818359375 186.7879486083984375 189.599609375 192.4580230712890625 195.363372802734375 198.315826416015625 201.3155975341796875 204.3628387451171875 207.4577484130859375 210.6005096435546875 213.791351318359375 217.0304412841796875 220.3180084228515625 223.6542510986328125 227.0393829345703125 230.4736175537109375 233.9571990966796875 237.490325927734375 241.0732574462890625 244.7062225341796875 248.38946533203125 252.12322998046875 255.9077606201171875 259.743316650390625 263.63018798828125 267.568603515625 271.558837890625 275.6011962890625 279.695953369140625 283.843414306640625 288.043853759765625 292.297576904296875 296.604888916015625 300.96612548828125 305.381591796875 309.851593017578125 314.37652587890625 318.9566650390625 323.5924072265625 328.284088134765625 333.032073974609375 337.83673095703125 342.698455810546875 347.617584228515625 352.594573974609375 357.62982177734375 362.72369384765625 367.87664794921875 373.089080810546875 378.361480712890625 383.694244384765625 389.087860107421875 394.542816162109375 400.059539794921875 405.638519287109375 411.280303955078125 416.9853515625 422.754241943359375 428.587432861328125 434.48553466796875 440.449066162109375 446.4786376953125 452.574798583984375 458.738128662109375 464.96929931640625 471.26885986328125 477.63751220703125 484.075897216796875 490.58465576171875 497.164520263671875 503.816131591796875 510.540283203125 517.337646484375 524.20904541015625 531.1551513671875 538.1768798828125 545.27496337890625 552.45025634765625 559.70361328125 567.03594970703125 574.4481201171875 581.94110107421875 589.5157470703125 597.17315673828125 604.91424560546875 612.74005126953125 620.6517333984375 628.65020751953125 636.73675537109375 644.91241455078125 653.17840576171875 661.53594970703125 669.986328125 678.53082275390625 687.17071533203125 695.90740966796875 704.74237060546875 713.67694091796875 722.7127685546875 731.85125732421875 741.0941162109375 750.44293212890625 759.8994140625 769.46539306640625 779.14263916015625 788.93310546875 798.838623046875 808.861328125 819.0032958984375 829.2666015625 839.65362548828125 850.16668701171875 860.80810546875 871.58050537109375 882.4864501953125 893.5286865234375 904.7100830078125 916.033447265625 927.50201416015625 939.11883544921875 950.8873291015625 962.81103515625 974.8934326171875 987.13848876953125 999.550048828125 1012.13238525390625 1024.889892578125 1037.826904296875 1050.9486083984375 1064.259765625 1077.765869140625 1091.472412109375 1105.3853759765625 1119.510986328125 1133.8558349609375 1148.4268798828125 1163.2315673828125 1178.277587890625 1193.5736083984375 1209.128173828125 1224.950927734375 1241.052001953125 1257.442138671875 1274.1329345703125 1291.1368408203125 1308.4674072265625 1326.1387939453125 1344.1669921875 1362.5687255859375 1381.3624267578125 1400.568359375 1420.2083740234375 1440.306640625 1460.8897705078125 1481.9871826171875 1503.631591796875 1525.859375 1548.71142578125 1572.23388671875 1596.4791259765625 1621.5069580078125 1647.3863525390625 1674.1973876953125 1702.0338134765625 1731.0072021484375 1761.2510986328125 1792.9285888671875 1826.241943359375 1861.4468994140625 1898.8760986328125 1938.97412109375 1982.361083984375 2029.94677734375 2083.166748046875 2144.54248046875 2219.375732421875 2324.073974609375 2500 2500 2500 2500 2500 2500
168.9594573974609375 171.406005859375 173.8981170654296875 176.4359283447265625 179.0196075439453125 181.6492919921875 184.3251495361328125 187.0473480224609375 189.8160247802734375 192.6313629150390625 195.4935455322265625 198.4027252197265625 201.359100341796875 204.3628387451171875 207.41412353515625 210.513153076171875 213.660125732421875 216.8552398681640625 220.0986785888671875 223.39068603515625 226.7314300537109375 230.12115478515625 233.56005859375 237.0483856201171875 240.58636474609375 244.1742095947265625 247.8121795654296875 251.5005035400390625 255.23944091796875 259.02923583984375 262.870147705078125 266.762451171875 270.706390380859375 274.7022705078125 278.7503662109375 282.850921630859375 287.004302978515625 291.210723876953125 295.4705810546875 299.784088134765625 304.151641845703125 308.573516845703125 313.050079345703125 317.58160400390625 322.16851806640625 326.81109619140625 331.509735107421875 336.264801025390625 341.07666015625 345.9456787109375 350.872283935546875 355.8568115234375 360.89971923828125 366.00140380859375 371.16229248046875 376.3828125 381.66339111328125 387.004486083984375 392.406585693359375 397.8701171875 403.395599365234375 408.983489990234375 414.63433837890625 420.34857177734375 426.126800537109375 431.96954345703125 437.8773193359375 443.850677490234375 449.8902587890625 455.99658203125 462.170257568359375 468.411956787109375 474.72222900390625 481.101776123046875 487.551239013671875 494.0712890625 500.66259765625 507.325927734375 514.06195068359375 520.87139892578125 527.75506591796875 534.7137451171875 541.74822998046875 548.85931396484375 556.0478515625 563.314697265625 570.66070556640625 578.0869140625 585.5941162109375 593.18328857421875 600.85546875 608.61163330078125 616.45281982421875 624.380126953125 632.39459228515625 640.49737548828125 648.68963623046875 656.97259521484375 665.34747314453125 673.8154296875 682.3779296875 691.03619384765625 699.79168701171875 708.645751953125 717.59991455078125 726.65570068359375 735.81463623046875 745.078369140625 754.448486328125 763.92681884765625 773.51513671875 783.2152099609375 793.02899169921875 802.95843505859375 813.005615234375 823.17266845703125 833.461669921875 843.875 854.41497802734375 865.0841064453125 875.88482666015625 886.81988525390625 897.89202880859375 909.10400390625 920.45892333984375 931.9598388671875 943.60992431640625 955.41265869140625 967.37152099609375 979.490234375 991.7725830078125 1004.22259521484375 1016.8446044921875 1029.6429443359375 1042.6221923828125 1055.787353515625 1069.1435546875 1082.6961669921875 1096.450927734375 1110.4136962890625 1124.5909423828125 1138.9893798828125 1153.615966796875 1168.478271484375 1183.58447265625 1198.9427490234375 1214.5623779296875 1230.452880859375 1246.62451171875 1263.0885009765625 1279.8565673828125 1296.94140625 1314.356689453125 1332.1173095703125 1350.2391357421875 1368.7396240234375 1387.6376953125 1406.953857421875 1426.710693359375 1446.93310546875 1467.6483154296875 1488.88671875 1510.6820068359375 1533.0718994140625 1556.0985107421875 1579.809814453125 1604.2601318359375 1629.5115966796875 1655.6363525390625 1682.7178955078125 1710.8548583984375 1740.16455078125 1770.7880859375 1802.8988037109375 1836.7127685546875 1872.5050048828125 1910.635986328125 1951.59326171875 1996.0654296875 2045.0823974609375 2100.3125 2164.8134765625 2245.539794921875 2369.807861328125 2500 2500 2500 2500 2500 2500
172.0073089599609375 174.4570465087890625 176.9524383544921875 179.49359130859375 182.0806732177734375 184.713836669921875 187.39324951171875 190.119049072265625 192.89141845703125 195.7105255126953125 198.5765228271484375 201.4896087646484375 204.449951171875 207.4577484130859375 210.513153076171875 213.61639404296875 216.76763916015625 219.96710205078125 223.2149810791015625 226.5114898681640625 229.8568267822265625 233.251220703125 236.6949005126953125 240.1880645751953125 243.73095703125 247.3238067626953125 250.9668731689453125 254.6603851318359375 258.404571533203125 262.199737548828125 266.046112060546875 269.943939208984375 273.893524169921875 277.8951416015625 281.949066162109375 286.0555419921875 290.214935302734375 294.427520751953125 298.693572998046875 303.013427734375 307.38739013671875 311.815826416015625 316.29901123046875 320.837310791015625 325.43109130859375 330.080657958984375 334.786376953125 339.54864501953125 344.367828369140625 349.24432373046875 354.178466796875 359.17071533203125 364.221466064453125 369.331085205078125 374.50006103515625 379.728790283203125 385.017730712890625 390.367340087890625 395.778045654296875 401.2503662109375 406.784759521484375 412.381744384765625 418.041778564453125 423.76544189453125 429.553192138671875 435.405609130859375 441.3232421875 447.306640625 453.356414794921875 459.473114013671875 465.6573486328125 471.909759521484375 478.230987548828125 484.621612548828125 491.082366943359375 497.613922119140625 504.216949462890625 510.89215087890625 517.64031982421875 524.46209716796875 531.35833740234375 538.32977294921875 545.37725830078125 552.5015869140625 559.70361328125 566.98419189453125 574.34423828125 581.78466796875 589.306396484375 596.910400390625 604.59765625 612.36920166015625 620.22607421875 628.16937255859375 636.20013427734375 644.31951904296875 652.52874755859375 660.8289794921875 669.22149658203125 677.70745849609375 686.288330078125 694.96539306640625 703.739990234375 712.6136474609375 721.5877685546875 730.6639404296875 739.84375 749.1287841796875 758.520751953125 768.0213623046875 777.6324462890625 787.3558349609375 797.1934814453125 807.14739990234375 817.21954345703125 827.41217041015625 837.72747802734375 848.16766357421875 858.7352294921875 869.4326171875 880.26239013671875 891.2271728515625 902.329833984375 913.57318115234375 924.9603271484375 936.49432373046875 948.178466796875 960.0162353515625 972.0111083984375 984.1668701171875 996.4874267578125 1008.97686767578125 1021.639404296875 1034.4796142578125 1047.502197265625 1060.7120361328125 1074.1142578125 1087.714599609375 1101.5186767578125 1115.5325927734375 1129.7628173828125 1144.216064453125 1158.899658203125 1173.8212890625 1188.9888916015625 1204.411376953125 1220.09765625 1236.0577392578125 1252.3021240234375 1268.842041015625 1285.689453125 1302.8575439453125 1320.3602294921875 1338.2125244140625 1356.4310302734375 1375.0333251953125 1394.0389404296875 1413.4688720703125 1433.3463134765625 1453.697021484375 1474.548828125 1495.9332275390625 1517.8848876953125 1540.4427490234375 1563.6507568359375 1587.5582275390625 1612.221923828125 1637.70654296875 1664.0872802734375 1691.451904296875 1719.90380859375 1749.5667724609375 1780.590576171875 1813.159423828125 1847.5047607421875 1883.9237060546875 1922.8084716796875 1964.6962890625 2010.3572998046875 2060.967041015625 2118.48974609375 2186.7109375 2275.166748046875 2447.5595703125 2500 2500 2500 2500 2500 2500
175.1021575927734375 177.5551605224609375 180.0538787841796875 182.5984344482421875 185.188995361328125 187.8256988525390625 190.5087127685546875 193.2382049560546875 196.0143280029296875 198.837249755859375 201.7071533203125 204.62420654296875 207.5886077880859375 210.6005096435546875 213.660125732421875 216.76763916015625 219.923248291015625 223.1271514892578125 226.3795318603515625 229.680633544921875 233.0306549072265625 236.4298095703125 239.878326416015625 243.3764190673828125 246.92431640625 250.52227783203125 254.1705322265625 257.86932373046875 261.618896484375 265.41949462890625 269.27142333984375 273.174896240234375 277.130218505859375 281.137664794921875 285.197540283203125 289.31005859375 293.4755859375 297.69439697265625 301.966796875 306.2930908203125 310.673614501953125 315.10870361328125 319.598663330078125 324.14385986328125 328.744598388671875 333.401275634765625 338.1142578125 342.883880615234375 347.71051025390625 352.594573974609375 357.536468505859375 362.53656005859375 367.595245361328125 372.712982177734375 377.89019775390625 383.1273193359375 388.424774169921875 393.78302001953125 399.202545166015625 404.683807373046875 410.227294921875 415.83349609375 421.502960205078125 427.23614501953125 433.03363037109375 438.89593505859375 444.8236083984375 450.817230224609375 456.87738037109375 463.004669189453125 469.199676513671875 475.4630126953125 481.79534912109375 488.19732666015625 494.66961669921875 501.212860107421875 507.82781982421875 514.51519775390625 521.275634765625 528.11004638671875 535.01910400390625 542.00360107421875 549.0643310546875 556.2021484375 563.41796875 570.71258544921875 578.0869140625 585.5418701171875 593.078369140625 600.697509765625 608.400146484375 616.1873779296875 624.06024169921875 632.01983642578125 640.06719970703125 648.20355224609375 656.43011474609375 664.74798583984375 673.158447265625 681.662841796875 690.262451171875 698.9586181640625 707.7528076171875 716.64642333984375 725.6409912109375 734.73797607421875 743.9390869140625 753.245849609375 762.66009521484375 772.1834716796875 781.81781005859375 791.5650634765625 801.42706298828125 811.4058837890625 821.503662109375 831.72247314453125 842.06451416015625 852.5322265625 863.12799072265625 873.854248046875 884.713623046875 895.7088623046875 906.8427734375 918.11822509765625 929.53826904296875 941.10614013671875 952.82513427734375 964.69873046875 976.73046875 988.9241943359375 1001.28387451171875 1013.8135986328125 1026.5177001953125 1039.4007568359375 1052.4676513671875 1065.72314453125 1079.1727294921875 1092.822021484375 1106.6766357421875 1120.742919921875 1135.0274658203125 1149.537109375 1164.2791748046875 1179.2615966796875 1194.492431640625 1209.9805908203125 1225.7354736328125 1241.76708984375 1258.086181640625 1274.7041015625 1291.63330078125 1308.8870849609375 1326.4796142578125 1344.426513671875 1362.7445068359375 1381.4517822265625 1400.568359375 1420.11572265625 1440.117919921875 1460.60107421875 1481.5943603515625 1503.1298828125 1525.24365234375 1547.975830078125 1571.3719482421875 1595.4835205078125 1620.369384765625 1646.09716796875 1672.7454833984375 1700.4063720703125 1729.188720703125 1759.223388671875 1790.6693115234375 1823.723388671875 1858.63427734375 1895.7236328125 1935.4205322265625 1978.320068359375 2025.28955078125 2077.68505859375 2137.853515625 2210.60400390625 2309.868408203125 2500 2500 2500 2500 2500 2500 2500
178.24420166015625 180.700531005859375 183.20263671875 185.7506561279296875 188.3447418212890625 190.9850616455078125 193.6717529296875 196.4049835205078125 199.1849212646484375 202.011749267578125 204.8856201171875 207.806732177734375 210.775238037109375 213.791351318359375 216.8552398681640625 219.96710205078125 223.1271514892578125 226.3355560302734375 229.5925445556640625 232.8983306884765625 236.25311279296875 239.6571044921875 243.1105499267578125 246.6136627197265625 250.1666717529296875 253.7698211669921875 257.423370361328125 261.12750244140625 264.882537841796875 268.688720703125 272.546295166015625 276.455535888671875 280.416717529296875 284.430084228515625 288.496002197265625 292.614654541015625 296.78643798828125 301.0115966796875 305.29046630859375 309.623321533203125 314.010528564453125 318.452392578125 322.949249267578125 327.501434326171875 332.10931396484375 336.77325439453125 341.493560791015625 346.27069091796875 351.104949951171875 355.996734619140625 360.94647216796875 365.954559326171875 371.0213623046875 376.147369384765625 381.332977294921875 386.57861328125 391.884735107421875 397.251800537109375 402.680267333984375 408.170654296875 413.723419189453125 419.33905029296875 425.01806640625 430.761016845703125 436.568389892578125 442.440765380859375 448.378692626953125 454.382720947265625 460.4534912109375 466.591522216796875 472.7974853515625 479.071990966796875 485.415679931640625 491.829193115234375 498.313201904296875 504.868438720703125 511.49554443359375 518.19525146484375 524.9683837890625 531.8155517578125 538.7376708984375 545.73541259765625 552.8096923828125 559.96136474609375 567.191162109375 574.50006103515625 581.88897705078125 589.3587646484375 596.910400390625 604.544921875 612.26324462890625 620.06646728515625 627.9556884765625 635.931884765625 643.9962158203125 652.14990234375 660.39404296875 668.72991943359375 677.1588134765625 685.68194580078125 694.3006591796875 703.01641845703125 711.83056640625 720.74456787109375 729.7598876953125 738.878173828125 748.10101318359375 757.4300537109375 766.86700439453125 776.41363525390625 786.07177734375 795.84332275390625 805.730224609375 815.73455810546875 825.85845947265625 836.10394287109375 846.47344970703125 856.96923828125 867.59381103515625 878.349609375 889.23931884765625 900.265625 911.43145751953125 922.73974609375 934.1934814453125 945.7960205078125 957.5506591796875 969.46087646484375 981.5303955078125 993.762939453125 1006.16265869140625 1018.733642578125 1031.4803466796875 1044.4073486328125 1057.51953125 1070.8218994140625 1084.3199462890625 1098.019287109375 1111.92578125 1126.0458984375 1140.3861083984375 1154.9534912109375 1169.755615234375 1184.8004150390625 1200.09619140625 1215.65185546875 1231.477294921875 1247.5823974609375 1263.9781494140625 1280.6763916015625 1297.689697265625 1315.0316162109375 1332.716796875 1350.7611083984375 1369.1817626953125 1387.997314453125 1407.228271484375 1426.89697265625 1447.028076171875 1467.6483154296875 1488.787841796875 1510.4798583984375 1532.76171875 1555.6748046875 1579.2666015625 1603.5904541015625 1628.7078857421875 1654.689453125 1681.617431640625 1709.5887451171875 1738.7181396484375 1769.144287109375 1801.0364990234375 1834.6053466796875 1870.1190185546875 1907.9273681640625 1948.5020751953125 1992.506103515625 2040.9248046875 2095.339599609375 2158.605712890625 2237.0361328125 2353.200927734375 2500 2500 2500 2500 2500 2500 2500
181.4336395263671875 183.8933563232421875 186.3989105224609375 188.9504547119140625 191.5481414794921875 194.1921234130859375 196.8825531005859375 199.619598388671875 202.4034271240234375 205.234222412109375 208.1121368408203125 211.037353515625 214.0100555419921875 217.0304412841796875 220.0986785888671875 223.2149810791015625 226.3795318603515625 229.5925445556640625 232.854217529296875 236.164764404296875 239.524383544921875 242.933319091796875 246.39178466796875 249.9000091552734375 253.4582061767578125 257.066650390625 260.725555419921875 264.4351806640625 268.19580078125 272.00762939453125 275.8709716796875 279.786041259765625 283.753173828125 287.772613525390625 291.84466552734375 295.9696044921875 300.147735595703125 304.379364013671875 308.664794921875 313.00433349609375 317.398345947265625 321.84710693359375 326.350982666015625 330.91033935546875 335.525482177734375 340.19677734375 344.924591064453125 349.709320068359375 354.55133056640625 359.451019287109375 364.40875244140625 369.424957275390625 374.50006103515625 379.63446044921875 384.82861328125 390.08294677734375 395.39788818359375 400.773956298828125 406.211578369140625 411.711212158203125 417.273406982421875 422.898651123046875 428.587432861328125 434.340301513671875 440.15777587890625 446.0404052734375 451.98876953125 458.00341796875 464.0849609375 470.2340087890625 476.451141357421875 482.73699951171875 489.092254638671875 495.51751708984375 502.013519287109375 508.580902099609375 515.22039794921875 521.9327392578125 528.71868896484375 535.5789794921875 542.51434326171875 549.52569580078125 556.61376953125 563.77947998046875 571.0235595703125 578.3470458984375 585.75079345703125 593.2357177734375 600.80279541015625 608.4530029296875 616.1873779296875 624.0069580078125 631.9127197265625 639.90594482421875 647.98760986328125 656.15887451171875 664.42108154296875 672.77532958984375 681.22296142578125 689.76519775390625 698.40350341796875 707.13916015625 715.9736328125 724.908447265625 733.945068359375 743.0850830078125 752.33013916015625 761.68182373046875 771.1419677734375 780.71234130859375 790.394775390625 800.191162109375 810.10357666015625 820.1339111328125 830.28448486328125 840.55731201171875 850.954833984375 861.47930908203125 872.13330078125 882.9193115234375 893.8399658203125 904.89813232421875 916.09661865234375 927.43841552734375 938.9266357421875 950.56463623046875 962.355712890625 974.303466796875 986.41156005859375 998.68389892578125 1011.12457275390625 1023.73785400390625 1036.528076171875 1049.5001220703125 1062.65869140625 1076.0091552734375 1089.5567626953125 1103.3074951171875 1117.2672119140625 1131.4423828125 1145.8397216796875 1160.466552734375 1175.3302001953125 1190.43896484375 1205.8013916015625 1221.4266357421875 1237.32421875 1253.5048828125 1269.9796142578125 1286.760498046875 1303.8603515625 1321.2930908203125 1339.0736083984375 1357.21826171875 1375.7447509765625 1394.6719970703125 1414.0211181640625 1433.815185546875 1454.079345703125 1474.8414306640625 1496.1324462890625 1517.98681640625 1540.4427490234375 1563.5439453125 1587.339111328125 1611.884033203125 1637.2427978515625 1663.4893798828125 1690.710205078125 1719.007080078125 1748.50146484375 1779.340576171875 1811.7049560546875 1845.8211669921875 1881.97900390625 1920.5606689453125 1962.08740234375 2007.3033447265625 2057.337646484375 2114.0595703125 2181.017333984375 2266.869140625 2417.841552734375 2500 2500 2500 2500 2500 2500 2500
184.670654296875 187.133819580078125 189.64288330078125 192.1980133056640625 194.7993621826171875 197.4470672607421875 200.1413116455078125 202.8822479248046875 205.6700286865234375 208.504852294921875 211.3868865966796875 214.3162994384765625 217.29327392578125 220.3180084228515625 223.39068603515625 226.5114898681640625 229.680633544921875 232.8983306884765625 236.164764404296875 239.4801483154296875 242.8447113037109375 246.2586669921875 249.7222442626953125 253.23565673828125 256.799163818359375 260.412994384765625 264.077362060546875 267.792572021484375 271.558837890625 275.376434326171875 279.245635986328125 283.16668701171875 287.139862060546875 291.16546630859375 295.2437744140625 299.375091552734375 303.5596923828125 307.79791259765625 312.09002685546875 316.4364013671875 320.837310791015625 325.293121337890625 329.804168701171875 334.370758056640625 338.9932861328125 343.672088623046875 348.407562255859375 353.200042724609375 358.049957275390625 362.9576416015625 367.923553466796875 372.94805908203125 378.031585693359375 383.174560546875 388.377410888671875 393.640594482421875 398.96453857421875 404.3497314453125 409.796661376953125 415.3057861328125 420.877593994140625 426.512603759765625 432.211334228515625 437.97430419921875 443.80206298828125 449.695159912109375 455.654144287109375 461.67962646484375 467.77215576171875 473.932373046875 480.160888671875 486.458343505859375 492.82537841796875 499.26263427734375 505.77081298828125 512.35064697265625 519.00274658203125 525.72796630859375 532.5269775390625 539.40057373046875 546.34954833984375 553.37469482421875 560.47686767578125 567.6568603515625 574.91558837890625 582.25390625 589.67279052734375 597.17315673828125 604.7559814453125 612.42218017578125 620.1728515625 628.00909423828125 635.931884765625 643.94232177734375 652.04168701171875 660.23101806640625 668.51153564453125 676.884521484375 685.35125732421875 693.9130859375 702.5712890625 711.32733154296875 720.1826171875 729.13861083984375 738.19696044921875 747.359130859375 756.6268310546875 766.001708984375 775.485595703125 785.0802001953125 794.78741455078125 804.60919189453125 814.54754638671875 824.60455322265625 834.78228759765625 845.08306884765625 855.50921630859375 866.06304931640625 876.7470703125 887.56396484375 898.51629638671875 909.60699462890625 920.83880615234375 932.2149658203125 943.73846435546875 955.41265869140625 967.24102783203125 979.2271728515625 991.37481689453125 1003.6878662109375 1016.17047119140625 1028.8270263671875 1041.661865234375 1054.679931640625 1067.88623046875 1081.2857666015625 1094.8843994140625 1108.6876220703125 1122.701904296875 1136.93359375 1151.3896484375 1166.0772705078125 1181.004150390625 1196.1787109375 1211.6094970703125 1227.3060302734375 1243.278076171875 1259.536376953125 1276.09228515625 1292.9581298828125 1310.1470947265625 1327.6732177734375 1345.5521240234375 1363.8001708984375 1382.4356689453125 1401.478271484375 1420.949462890625 1440.873046875 1461.2747802734375 1482.1837158203125 1503.631591796875 1525.654052734375 1548.291015625 1571.58740234375 1595.5941162109375 1620.369384765625 1645.9801025390625 1672.5037841796875 1700.03125 1728.669921875 1758.5487060546875 1789.823974609375 1822.6890869140625 1857.38818359375 1894.2359619140625 1933.652099609375 1976.2156982421875 2022.7684326171875 2074.617919921875 2134.00830078125 2205.466552734375 2301.631591796875 2500 2500 2500 2500 2500 2500 2500 2500
187.9554443359375 190.422119140625 192.9347686767578125 195.4935455322265625 198.0986175537109375 200.7501220703125 203.4482421875 206.193115234375 208.9849395751953125 211.8238677978515625 214.7100830078125 217.643768310546875 220.625091552734375 223.6542510986328125 226.7314300537109375 229.8568267822265625 233.0306549072265625 236.25311279296875 239.524383544921875 242.8447113037109375 246.21429443359375 249.63336181640625 253.102142333984375 256.620849609375 260.189727783203125 263.809051513671875 267.47900390625 271.199859619140625 274.971923828125 278.795379638671875 282.6705322265625 286.59765625 290.576995849609375 294.60888671875 298.693572998046875 302.83135986328125 307.0225830078125 311.267486572265625 315.566436767578125 319.91973876953125 324.32769775390625 328.7906494140625 333.3089599609375 337.88299560546875 342.513031005859375 347.199493408203125 351.9427490234375 356.743133544921875 361.60107421875 366.516937255859375 371.491119384765625 376.524078369140625 381.616180419921875 386.76788330078125 391.9796142578125 397.251800537109375 402.584930419921875 407.97943115234375 413.43585205078125 418.95458984375 424.53619384765625 430.18115234375 435.8900146484375 441.663299560546875 447.50152587890625 453.4052734375 459.375091552734375 465.411590576171875 471.515350341796875 477.686981201171875 483.927093505859375 490.236328125 496.6153564453125 503.064849853515625 509.585479736328125 516.17791748046875 522.84295654296875 529.58123779296875 536.39361572265625 543.28082275390625 550.24359130859375 557.2828369140625 564.3992919921875 571.59393310546875 578.86749267578125 586.22100830078125 593.65533447265625 601.17138671875 608.770263671875 616.45281982421875 624.22015380859375 632.0733642578125 640.013427734375 648.04156494140625 656.15887451171875 664.3665771484375 672.6658935546875 681.0579833984375 689.54425048828125 698.1259765625 706.80450439453125 715.581298828125 724.45782470703125 733.435546875 742.5159912109375 751.7008056640625 760.99163818359375 770.39019775390625 779.89825439453125 789.51763916015625 799.25018310546875 809.097900390625 819.062744140625 829.14691162109375 839.3525390625 849.68182373046875 860.13720703125 870.72100830078125 881.435791015625 892.28424072265625 903.26898193359375 914.39288330078125 925.65887451171875 937.070068359375 948.629638671875 960.3409423828125 972.20745849609375 984.23284912109375 996.42095947265625 1008.77569580078125 1021.30126953125 1034.0020751953125 1046.8826904296875 1059.9478759765625 1073.202880859375 1086.6529541015625 1100.3035888671875 1114.160888671875 1128.2310791015625 1142.520751953125 1157.036865234375 1171.786865234375 1186.77880859375 1202.020751953125 1217.52197265625 1233.2916259765625 1249.3402099609375 1265.6783447265625 1282.3177490234375 1299.27099609375 1316.5516357421875 1334.174072265625 1352.1541748046875 1370.5089111328125 1389.2569580078125 1408.4185791015625 1428.015869140625 1448.0732421875 1468.617431640625 1489.67822265625 1511.2886962890625 1533.485595703125 1556.3104248046875 1579.809814453125 1604.036865234375 1629.05224609375 1654.926025390625 1681.7396240234375 1709.5887451171875 1738.5867919921875 1768.8707275390625 1800.607421875 1834.0045166015625 1869.3258056640625 1906.914794921875 1947.2342529296875 1990.9322509765625 2038.968505859375 2092.8759765625 2155.398681640625 2232.51171875 2344.597412109375 2500 2500 2500 2500 2500 2500 2500 2500
191.288238525390625 193.7584686279296875 196.274749755859375 198.837249755859375 201.44610595703125 204.1014862060546875 206.8035430908203125 209.5524444580078125 212.3483734130859375 215.19146728515625 218.081939697265625 221.01995849609375 224.005706787109375 227.0393829345703125 230.12115478515625 233.251220703125 236.4298095703125 239.6571044921875 242.933319091796875 246.2586669921875 249.63336181640625 253.0576324462890625 256.531707763671875 260.055816650390625 263.63018798828125 267.25506591796875 270.930694580078125 274.657318115234375 278.43524169921875 282.264678955078125 286.145904541015625 290.079193115234375 294.0648193359375 298.10308837890625 302.19427490234375 306.33868408203125 310.536590576171875 314.788330078125 319.09423828125 323.454559326171875 327.869720458984375 332.3399658203125 336.865692138671875 341.447235107421875 346.0849609375 350.779205322265625 355.530364990234375 360.33880615234375 365.204925537109375 370.129119873046875 375.11175537109375 380.1533203125 385.254150390625 390.41473388671875 395.635498046875 400.9168701171875 406.25933837890625 411.663330078125 417.12939453125 422.657958984375 428.249542236328125 433.9046630859375 439.623809814453125 445.4075927734375 451.2564697265625 457.17108154296875 463.151947021484375 469.199676513671875 475.314849853515625 481.498077392578125 487.750030517578125 494.0712890625 500.462554931640625 506.92449951171875 513.457763671875 520.0631103515625 526.74127197265625 533.492919921875 540.31890869140625 547.21990966796875 554.19683837890625 561.25042724609375 568.38153076171875 575.59100341796875 582.8797607421875 590.24871826171875 597.69879150390625 605.23089599609375 612.8460693359375 620.5452880859375 628.32965087890625 636.20013427734375 644.15789794921875 652.20404052734375 660.3397216796875 668.566162109375 676.884521484375 685.296142578125 693.80230712890625 702.40435791015625 711.10369873046875 719.90167236328125 728.79986572265625 737.7996826171875 746.90277099609375 756.11065673828125 765.42510986328125 774.84783935546875 784.38055419921875 794.02520751953125 803.78363037109375 813.65777587890625 823.6497802734375 833.76171875 843.99578857421875 854.354248046875 864.8394775390625 875.45391845703125 886.20013427734375 897.080810546875 908.0986328125 919.25653076171875 930.55743408203125 942.0045166015625 953.6009521484375 965.3502197265625 977.2557373046875 989.32135009765625 1001.55078125 1013.94818115234375 1026.5177001953125 1039.263916015625 1052.1912841796875 1065.304931640625 1078.60986328125 1092.1114501953125 1105.815673828125 1119.728271484375 1133.8558349609375 1148.2049560546875 1162.78271484375 1177.596923828125 1192.6553955078125 1207.9666748046875 1223.5400390625 1239.3851318359375 1255.51220703125 1271.932373046875 1288.65771484375 1305.7010498046875 1323.0760498046875 1340.7977294921875 1358.882080078125 1377.346923828125 1396.2110595703125 1415.4954833984375 1435.2230224609375 1455.418701171875 1476.1103515625 1497.32861328125 1519.1075439453125 1541.4854736328125 1564.5054931640625 1588.216064453125 1612.672607421875 1637.9384765625 1664.0872802734375 1691.20458984375 1719.3912353515625 1748.7677001953125 1779.4793701171875 1811.7049560546875 1845.6683349609375 1881.6553955078125 1920.0430908203125 1961.34423828125 2006.28955078125 2055.984130859375 2112.25 2178.51904296875 2263.0400390625 2406.45849609375 2500 2500 2500 2500 2500 2500 2500 2500
194.669219970703125 197.1430816650390625 199.6630706787109375 202.229339599609375 204.8420562744140625 207.5013580322265625 210.207427978515625 212.9604339599609375 215.7605133056640625 218.607879638671875 221.502685546875 224.44512939453125 227.43536376953125 230.4736175537109375 233.56005859375 236.6949005126953125 239.878326416015625 243.1105499267578125 246.39178466796875 249.7222442626953125 253.102142333984375 256.531707763671875 260.01116943359375 263.540740966796875 267.120697021484375 270.751251220703125 274.432647705078125 278.1651611328125 281.949066162109375 285.784576416015625 289.671966552734375 293.611541748046875 297.60357666015625 301.648345947265625 305.74615478515625 309.89727783203125 314.102020263671875 318.3607177734375 322.67364501953125 327.04119873046875 331.463623046875 335.941314697265625 340.474578857421875 345.063812255859375 349.709320068359375 354.4114990234375 359.17071533203125 363.98736572265625 368.86181640625 373.794464111328125 378.785736083984375 383.836029052734375 388.945770263671875 394.115386962890625 399.3453369140625 404.636077880859375 409.988037109375 415.401702880859375 420.877593994140625 426.4161376953125 432.01788330078125 437.683349609375 443.41302490234375 449.20745849609375 455.067230224609375 460.992889404296875 466.9849853515625 473.044158935546875 479.17095947265625 485.36602783203125 491.6300048828125 497.963531494140625 504.367279052734375 510.841888427734375 517.3880615234375 524.006591796875 530.6981201171875 537.46337890625 544.30322265625 551.21832275390625 558.2095947265625 565.27777099609375 572.423828125 579.64849853515625 586.95269775390625 594.33740234375 601.803466796875 609.35198974609375 616.98382568359375 624.70001220703125 632.50164794921875 640.38983154296875 648.3656005859375 656.43011474609375 664.58453369140625 672.830078125 681.16796875 689.5994873046875 698.1259765625 706.748779296875 715.46923828125 724.28887939453125 733.2091064453125 742.23150634765625 751.357666015625 760.58917236328125 769.927734375 779.3751220703125 788.93310546875 798.603515625 808.38836669921875 818.28955078125 828.30926513671875 838.44952392578125 848.712646484375 859.100830078125 869.61663818359375 880.26239013671875 891.04071044921875 901.954345703125 913.0059814453125 924.1986083984375 935.53521728515625 947.01898193359375 958.6531982421875 970.44122314453125 982.38671875 994.49346923828125 1006.7652587890625 1019.206298828125 1031.82080078125 1044.6134033203125 1057.5888671875 1070.751953125 1084.1080322265625 1097.6627197265625 1111.421630859375 1125.3909912109375 1139.5772705078125 1153.9874267578125 1168.6285400390625 1183.5084228515625 1198.6353759765625 1214.0179443359375 1229.6654052734375 1245.5877685546875 1261.795654296875 1278.3004150390625 1295.1141357421875 1312.25 1329.7222900390625 1347.546142578125 1365.7381591796875 1384.31640625 1403.3004150390625 1422.7117919921875 1442.5738525390625 1462.9127197265625 1483.7569580078125 1505.13818359375 1527.092041015625 1549.657958984375 1572.880859375 1596.8111572265625 1621.5069580078125 1647.0345458984375 1673.4710693359375 1700.90673828125 1729.4482421875 1759.223388671875 1790.387451171875 1823.1322021484375 1857.699462890625 1894.401123046875 1933.652099609375 1976.0247802734375 2022.3494873046875 2073.9130859375 2132.9169921875 2203.773681640625 2298.629638671875 2500 2500 2500 2500 2500 2500 2500 2500 2500
198.0986175537109375 200.5761566162109375 203.09991455078125 205.6700286865234375 208.2866668701171875 210.949981689453125 213.660125732421875 216.4172821044921875 219.22161865234375 222.0733184814453125 224.9725341796875 227.9194488525390625 230.914276123046875 233.9571990966796875 237.0483856201171875 240.1880645751953125 243.3764190673828125 246.6136627197265625 249.9000091552734375 253.23565673828125 256.620849609375 260.055816650390625 263.540740966796875 267.075897216796875 270.661529541015625 274.2978515625 277.985137939453125 281.7236328125 285.51361083984375 289.35528564453125 293.248992919921875 297.194976806640625 301.193511962890625 305.244873046875 309.34942626953125 313.50738525390625 317.719085693359375 321.98486328125 326.30499267578125 330.679840087890625 335.109710693359375 339.594940185546875 344.135894775390625 348.732940673828125 353.386383056640625 358.096649169921875 362.86407470703125 367.689056396484375 372.57196044921875 377.51324462890625 382.513275146484375 387.572479248046875 392.6912841796875 397.8701171875 403.10943603515625 408.409698486328125 413.771331787109375 419.194854736328125 424.680755615234375 430.2294921875 435.841583251953125 441.517547607421875 447.2579345703125 453.063262939453125 458.934112548828125 464.871002197265625 470.87457275390625 476.94537353515625 483.08404541015625 489.291168212890625 495.567413330078125 501.913421630859375 508.329833984375 514.8173828125 521.37677001953125 528.00860595703125 534.7137451171875 541.492919921875 548.34686279296875 555.2763671875 562.28228759765625 569.36541748046875 576.52655029296875 583.7667236328125 591.086669921875 598.4874267578125 605.96990966796875 613.5350341796875 621.18389892578125 628.91741943359375 636.73675537109375 644.64288330078125 652.63702392578125 660.72027587890625 668.893798828125 677.1588134765625 685.5166015625 693.96844482421875 702.515625 711.15960693359375 719.90167236328125 728.743408203125 737.6861572265625 746.73162841796875 755.88128662109375 765.13690185546875 774.50006103515625 783.97259521484375 793.55633544921875 803.25311279296875 813.06488037109375 822.99371337890625 833.04168701171875 843.2109375 853.50372314453125 863.92236328125 874.46929931640625 885.1470947265625 895.958251953125 906.905517578125 917.99176025390625 929.21990966796875 940.59307861328125 952.11431884765625 963.787109375 975.6148681640625 987.60125732421875 999.75 1012.065185546875 1024.5509033203125 1037.2115478515625 1050.0517578125 1063.076171875 1076.2900390625 1089.6986083984375 1103.3074951171875 1117.12255859375 1131.150146484375 1145.396728515625 1159.869384765625 1174.5755615234375 1189.52294921875 1204.7200927734375 1220.17578125 1235.8995361328125 1251.9014892578125 1268.1923828125 1284.783935546875 1301.688720703125 1318.9200439453125 1336.492431640625 1354.4215087890625 1372.7244873046875 1391.4197998046875 1410.5277099609375 1430.070068359375 1450.0714111328125 1470.558349609375 1491.5606689453125 1513.1109619140625 1535.24609375 1558.0074462890625 1581.44140625 1605.6007080078125 1630.546142578125 1656.34716796875 1683.0850830078125 1710.8548583984375 1739.769775390625 1769.9656982421875 1801.6090087890625 1834.906005859375 1870.1190185546875 1907.5897216796875 1947.7772216796875 1991.3251953125 2039.185546875 2092.8759765625 2155.108642578125 2231.76513671875 2342.6787109375 2500 2500 2500 2500 2500 2500 2500 2500 2500
201.576629638671875 204.05792236328125 206.58551025390625 209.1595458984375 211.7801666259765625 214.4475555419921875 217.1618499755859375 219.923248291015625 222.731903076171875 225.587982177734375 228.4916839599609375 231.4431915283203125 234.4426727294921875 237.490325927734375 240.58636474609375 243.73095703125 246.92431640625 250.1666717529296875 253.4582061767578125 256.799163818359375 260.189727783203125 263.63018798828125 267.120697021484375 270.661529541015625 274.2529296875 277.8951416015625 281.588409423828125 285.332977294921875 289.129119873046875 292.97711181640625 296.877227783203125 300.8297119140625 304.834869384765625 308.892974853515625 313.00433349609375 317.169281005859375 321.3880615234375 325.6610107421875 329.98846435546875 334.370758056640625 338.808197021484375 343.3011474609375 347.84991455078125 352.45489501953125 357.116424560546875 361.83489990234375 366.610687255859375 371.44415283203125 376.335723876953125 381.2857666015625 386.294708251953125 391.363006591796875 396.49102783203125 401.679229736328125 406.9281005859375 412.238037109375 417.60955810546875 423.0430908203125 428.539154052734375 434.0982666015625 439.72088623046875 445.4075927734375 451.15887451171875 456.97528076171875 462.857391357421875 468.805755615234375 474.82098388671875 480.903656005859375 487.05438232421875 493.2738037109375 499.56256103515625 505.9212646484375 512.35064697265625 518.851318359375 525.424072265625 532.06964111328125 538.78863525390625 545.5819091796875 552.45025634765625 559.3944091796875 566.41522216796875 573.5135498046875 580.69024658203125 587.94610595703125 595.28216552734375 602.69927978515625 610.19842529296875 617.78057861328125 625.44671630859375 633.19793701171875 641.03521728515625 648.95977783203125 656.97259521484375 665.074951171875 673.2679443359375 681.5528564453125 689.93096923828125 698.40350341796875 706.97186279296875 715.63739013671875 724.4014892578125 733.2657470703125 742.23150634765625 751.30047607421875 760.47418212890625 769.75433349609375 779.14263916015625 788.640869140625 798.25091552734375 807.974609375 817.81390380859375 827.77093505859375 837.8477783203125 848.046630859375 858.36968994140625 868.8194580078125 879.39825439453125 890.10870361328125 900.95343017578125 911.93511962890625 923.0567626953125 934.32122802734375 945.731689453125 957.29132080078125 969.00360107421875 980.8719482421875 992.900146484375 1005.09197998046875 1017.4515380859375 1029.9830322265625 1042.6907958984375 1055.5797119140625 1068.6544189453125 1081.9202880859375 1095.382568359375 1109.047119140625 1122.9197998046875 1137.0069580078125 1151.3154296875 1165.852294921875 1180.6251220703125 1195.6419677734375 1210.9111328125 1226.4420166015625 1242.2440185546875 1258.3277587890625 1274.7041015625 1291.3851318359375 1308.3834228515625 1325.7130126953125 1343.3885498046875 1361.4263916015625 1379.84375 1398.659912109375 1417.8956298828125 1437.573486328125 1457.7188720703125 1478.359130859375 1499.525146484375 1521.2508544921875 1543.5743408203125 1566.5386962890625 1590.1923828125 1614.5904541015625 1639.7965087890625 1665.8836669921875 1692.9373779296875 1721.058349609375 1750.36669921875 1781.0076904296875 1813.159423828125 1847.045166015625 1882.9505615234375 1921.2513427734375 1962.4593505859375 2007.3033447265625 2056.885986328125 2113.024658203125 2179.141845703125 2263.46240234375 2406.45849609375 2500 2500 2500 2500 2500 2500 2500 2500 2500
205.103485107421875 207.5886077880859375 210.120086669921875 212.698089599609375 215.322784423828125 217.9943084716796875 220.71282958984375 223.4785308837890625 226.2915802001953125 229.1521453857421875 232.0604095458984375 235.0165557861328125 238.020782470703125 241.0732574462890625 244.1742095947265625 247.3238067626953125 250.52227783203125 253.7698211669921875 257.066650390625 260.412994384765625 263.809051513671875 267.25506591796875 270.751251220703125 274.2978515625 277.8951416015625 281.5433349609375 285.24267578125 288.993438720703125 292.7958984375 296.6502685546875 300.556884765625 304.5159912109375 308.52789306640625 312.592864990234375 316.711181640625 320.883209228515625 325.10919189453125 329.389495849609375 333.724395751953125 338.1142578125 342.55938720703125 347.060150146484375 351.61688232421875 356.229949951171875 360.89971923828125 365.626556396484375 370.41082763671875 375.252960205078125 380.1533203125 385.1123046875 390.130340576171875 395.207855224609375 400.34527587890625 405.54302978515625 410.80157470703125 416.12139892578125 421.502960205078125 426.946685791015625 432.453155517578125 438.022796630859375 443.656158447265625 449.353759765625 455.11614990234375 460.94384765625 466.837432861328125 472.7974853515625 478.8245849609375 484.919342041015625 491.082366943359375 497.314300537109375 503.615753173828125 509.9874267578125 516.42999267578125 522.944091796875 529.530517578125 536.18994140625 542.923095703125 549.73077392578125 556.61376953125 563.5728759765625 570.60888671875 577.72271728515625 584.9151611328125 592.1871337890625 599.53955078125 606.97332763671875 614.48944091796875 622.08892822265625 629.77276611328125 637.54193115234375 645.39764404296875 653.34088134765625 661.372802734375 669.49462890625 677.70745849609375 686.0126953125 694.41143798828125 702.9051513671875 711.49505615234375 720.1826171875 728.96923828125 737.8564453125 746.845703125 755.93865966796875 765.13690185546875 774.442138671875 783.8560791015625 793.38055419921875 803.01739501953125 812.7685546875 822.635986328125 832.621826171875 842.7281494140625 852.95721435546875 863.311279296875 873.79278564453125 884.40411376953125 895.14801025390625 906.0269775390625 917.04388427734375 928.20166015625 939.5032958984375 950.951904296875 962.55084228515625 974.303466796875 986.21337890625 998.2843017578125 1010.52020263671875 1022.9251708984375 1035.5035400390625 1048.2596435546875 1061.1983642578125 1074.32470703125 1087.643798828125 1101.1612548828125 1114.8826904296875 1128.8143310546875 1142.9627685546875 1157.334716796875 1171.9375 1186.77880859375 1201.86669921875 1217.2100830078125 1232.818115234375 1248.70068359375 1264.868408203125 1281.3326416015625 1298.105712890625 1315.200439453125 1332.631103515625 1350.4130859375 1368.5628662109375 1387.098388671875 1406.039306640625 1425.4071044921875 1445.22509765625 1465.5194091796875 1486.318603515625 1507.654296875 1529.56201171875 1552.0811767578125 1575.2568359375 1599.1392822265625 1623.7864990234375 1649.2650146484375 1675.6517333984375 1703.0369873046875 1731.5274658203125 1761.2510986328125 1792.363037109375 1825.0555419921875 1859.5704345703125 1896.22021484375 1935.4205322265625 1977.7452392578125 2024.02734375 2075.55908203125 2134.55517578125 2205.466552734375 2300.6259765625 2500 2500 2500 2500 2500 2500 2500 2500 2500 2500
208.679412841796875 211.168426513671875 213.7038726806640625 216.285919189453125 218.91473388671875 221.5904693603515625 224.31329345703125 227.0833740234375 229.90087890625 232.7660064697265625 235.6789093017578125 238.6397857666015625 241.648834228515625 244.7062225341796875 247.8121795654296875 250.9668731689453125 254.1705322265625 257.423370361328125 260.725555419921875 264.077362060546875 267.47900390625 270.930694580078125 274.432647705078125 277.985137939453125 281.588409423828125 285.24267578125 288.948211669921875 292.70526123046875 296.514129638671875 300.375030517578125 304.28826904296875 308.254119873046875 312.272857666015625 316.344818115234375 320.470245361328125 324.649444580078125 328.882781982421875 333.1705322265625 337.51300048828125 341.910552978515625 346.363525390625 350.872283935546875 355.437103271484375 360.05841064453125 364.736541748046875 369.471893310546875 374.26483154296875 379.115753173828125 384.025054931640625 388.993133544921875 394.020416259765625 399.107330322265625 404.254302978515625 409.4617919921875 414.730224609375 420.060089111328125 425.45184326171875 430.906005859375 436.423004150390625 442.003387451171875 447.647705078125 453.356414794921875 459.130096435546875 464.96929931640625 470.87457275390625 476.846527099609375 482.885711669921875 488.9927978515625 495.1683349609375 501.412994384765625 507.7274169921875 514.1123046875 520.5682373046875 527.0960693359375 533.69635009765625 540.36993408203125 547.11749267578125 553.93988037109375 560.83782958984375 567.8121337890625 574.8636474609375 581.99322509765625 589.20172119140625 596.4901123046875 603.85919189453125 611.30999755859375 618.84344482421875 626.4605712890625 634.16241455078125 641.949951171875 649.8243408203125 657.78668212890625 665.83807373046875 673.979736328125 682.212890625 690.53875732421875 698.9586181640625 707.473876953125 716.08575439453125 724.7957763671875 733.6053466796875 742.5159912109375 751.52923583984375 760.64666748046875 769.86993408203125 779.20074462890625 788.640869140625 798.192138671875 807.85638427734375 817.6356201171875 827.53173828125 837.5469970703125 847.6834716796875 857.943359375 868.3291015625 878.843017578125 889.4876708984375 900.265625 911.1796875 922.23260498046875 933.42730712890625 944.76690673828125 956.25457763671875 967.89361572265625 979.68756103515625 991.63995361328125 1003.75469970703125 1016.03570556640625 1028.4871826171875 1041.1134033203125 1053.9190673828125 1066.908935546875 1080.0880126953125 1093.461669921875 1107.0355224609375 1120.8154296875 1134.8077392578125 1149.0189208984375 1163.4559326171875 1178.1263427734375 1193.037841796875 1208.198974609375 1223.618408203125 1239.3057861328125 1255.2711181640625 1271.525390625 1288.080078125 1304.94775390625 1322.1417236328125 1339.6767578125 1357.568359375 1375.8336181640625 1394.4910888671875 1413.5609130859375 1433.065185546875 1453.0281982421875 1473.4766845703125 1494.4404296875 1515.9522705078125 1538.048828125 1560.7716064453125 1584.1669921875 1608.2882080078125 1633.195556640625 1658.958984375 1685.6597900390625 1713.393310546875 1742.273193359375 1772.435546875 1804.04736328125 1837.3160400390625 1872.5050048828125 1909.9576416015625 1950.1363525390625 1993.6898193359375 2041.5787353515625 2095.339599609375 2157.728271484375 2234.76416015625 2347.19287109375 2500 2500 2500 2500 2500 2500 2500 2500 2500 2500
212.304656982421875 214.797607421875 217.3370819091796875 219.923248291015625 222.5562591552734375 225.2362823486328125 227.963470458984375 230.738006591796875 233.56005859375 236.4298095703125 239.347442626953125 242.3131256103515625 245.3270721435546875 248.38946533203125 251.5005035400390625 254.6603851318359375 257.86932373046875 261.12750244140625 264.4351806640625 267.792572021484375 271.199859619140625 274.657318115234375 278.1651611328125 281.7236328125 285.332977294921875 288.993438720703125 292.70526123046875 296.46875 300.28411865234375 304.151641845703125 308.071624755859375 312.044342041015625 316.070068359375 320.149078369140625 324.28173828125 328.468292236328125 332.709075927734375 337.00439453125 341.354583740234375 345.760009765625 350.220947265625 354.73779296875 359.31085205078125 363.9405517578125 368.627197265625 373.3712158203125 378.172943115234375 383.0328369140625 387.95123291015625 392.928558349609375 397.96527099609375 403.061767578125 408.218475341796875 413.43585205078125 418.714324951171875 424.054443359375 429.45660400390625 434.921295166015625 440.449066162109375 446.0404052734375 451.695831298828125 457.415863037109375 463.2010498046875 469.05194091796875 474.969146728515625 480.95318603515625 487.004730224609375 493.12432861328125 499.3126220703125 505.57025146484375 511.89788818359375 518.29620361328125 524.76580810546875 531.30755615234375 537.9219970703125 544.6099853515625 551.37225341796875 558.2095947265625 565.12274169921875 572.112548828125 579.17987060546875 586.32550048828125 593.5504150390625 600.85546875 608.2415771484375 615.70965576171875 623.26080322265625 630.89593505859375 638.6160888671875 646.42236328125 654.31585693359375 662.297607421875 670.368896484375 678.53082275390625 686.78460693359375 695.131591796875 703.572998046875 712.11016845703125 720.74456787109375 729.47747802734375 738.31048583984375 747.24505615234375 756.28271484375 765.42510986328125 774.6739501953125 784.0308837890625 793.49774169921875 803.0762939453125 812.7685546875 822.57635498046875 832.50189208984375 842.547119140625 852.71435546875 863.00579833984375 873.423828125 883.97088623046875 894.64959716796875 905.46246337890625 916.41229248046875 927.50201416015625 938.7344970703125 950.1129150390625 961.6405029296875 973.32061767578125 985.15679931640625 997.1527099609375 1009.312255859375 1021.639404296875 1034.138427734375 1046.8138427734375 1059.670166015625 1072.71240234375 1085.945556640625 1099.3751220703125 1113.0068359375 1126.8466796875 1140.9010009765625 1155.1766357421875 1169.6805419921875 1184.4202880859375 1199.4039306640625 1214.64013671875 1230.1378173828125 1245.90673828125 1261.9571533203125 1278.3004150390625 1294.9481201171875 1311.913330078125 1329.209716796875 1346.8521728515625 1364.8568115234375 1383.2413330078125 1402.0245361328125 1421.2275390625 1440.873046875 1460.986083984375 1481.5943603515625 1502.728759765625 1524.4232177734375 1546.7161865234375 1569.650634765625 1593.275146484375 1617.6451416015625 1642.824462890625 1668.88623046875 1695.9166259765625 1724.0167236328125 1753.3072509765625 1783.934326171875 1816.0775146484375 1849.9615478515625 1885.8746337890625 1924.1961669921875 1965.444091796875 2010.3572998046875 2060.056884765625 2116.398681640625 2182.90380859375 2268.159423828125 2417.841552734375 2500 2500 2500 2500 2500 2500 2500 2500 2500 2500
215.9794158935546875 218.47637939453125 221.01995849609375 223.610321044921875 226.247589111328125 228.931976318359375 231.663604736328125 234.4426727294921875 237.26934814453125 240.1438140869140625 243.0662384033203125 246.0368194580078125 249.055755615234375 252.12322998046875 255.23944091796875 258.404571533203125 261.618896484375 264.882537841796875 268.19580078125 271.558837890625 274.971923828125 278.43524169921875 281.949066162109375 285.51361083984375 289.129119873046875 292.7958984375 296.514129638671875 300.28411865234375 304.106109619140625 307.980377197265625 311.9072265625 315.88690185546875 319.91973876953125 324.0059814453125 328.145965576171875 332.3399658203125 336.588348388671875 340.891387939453125 345.249420166015625 349.662811279296875 354.131866455078125 358.656951904296875 363.238433837890625 367.87664794921875 372.57196044921875 377.324798583984375 382.135498046875 387.004486083984375 391.932159423828125 396.918914794921875 401.9652099609375 407.071441650390625 412.238037109375 417.465484619140625 422.754241943359375 428.104736328125 433.517486572265625 438.992950439453125 444.53167724609375 450.1341552734375 455.8009033203125 461.532440185546875 467.329345703125 473.192169189453125 479.121490478515625 485.11785888671875 491.18194580078125 497.314300537109375 503.515594482421875 509.78643798828125 516.12750244140625 522.53948974609375 529.0230712890625 535.5789794921875 542.2078857421875 548.91058349609375 555.68780517578125 562.54034423828125 569.468994140625 576.474609375 583.5579833984375 590.72003173828125 597.96160888671875 605.28369140625 612.68707275390625 620.1728515625 627.74200439453125 635.3955078125 643.13433837890625 650.959716796875 658.87261962890625 666.874267578125 674.96575927734375 683.1483154296875 691.4232177734375 699.79168701171875 708.25506591796875 716.81463623046875 725.471923828125 734.22821044921875 743.0850830078125 752.0440673828125 761.106689453125 770.27459716796875 779.54949951171875 788.93310546875 798.42718505859375 808.03369140625 817.75445556640625 827.591552734375 837.5469970703125 847.6229248046875 857.82159423828125 868.14520263671875 878.5963134765625 889.17724609375 899.890625 910.7391357421875 921.72564697265625 932.8529052734375 944.1240234375 955.54217529296875 967.110595703125 978.83270263671875 990.71209716796875 1002.75250244140625 1014.9578857421875 1027.3323974609375 1039.880126953125 1052.6058349609375 1065.5140380859375 1078.60986328125 1091.8984375 1105.3853759765625 1119.076416015625 1132.9776611328125 1147.095703125 1161.4373779296875 1176.009765625 1190.8209228515625 1205.878662109375 1221.1920166015625 1236.77001953125 1252.622802734375 1268.7607421875 1285.1954345703125 1301.9390869140625 1319.004638671875 1336.4063720703125 1354.15966796875 1372.281005859375 1390.78857421875 1409.701904296875 1429.04248046875 1448.833984375 1469.102294921875 1489.876220703125 1511.1876220703125 1533.0718994140625 1555.5689697265625 1578.7237548828125 1602.5870361328125 1627.217041015625 1652.6806640625 1679.055419921875 1706.43212890625 1734.9183349609375 1764.6429443359375 1795.7628173828125 1828.471923828125 1863.014892578125 1899.7083740234375 1938.97412109375 1981.3961181640625 2027.82421875 2079.58349609375 2138.959716796875 2210.60400390625 2307.776123046875 2500 2500 2500 2500 2500 2500 2500 2500 2500 2500 2500
219.7039642333984375 222.20501708984375 224.7527618408203125 227.3473663330078125 229.988983154296875 232.67779541015625 235.4139404296875 238.1976165771484375 241.02899169921875 243.9082489013671875 246.8355560302734375 249.8111114501953125 252.835113525390625 255.9077606201171875 259.02923583984375 262.199737548828125 265.41949462890625 268.688720703125 272.00762939453125 275.376434326171875 278.795379638671875 282.264678955078125 285.784576416015625 289.35528564453125 292.97711181640625 296.6502685546875 300.375030517578125 304.151641845703125 307.980377197265625 311.86151123046875 315.79534912109375 319.782135009765625 323.8221435546875 327.915740966796875 332.063201904296875 336.264801025390625 340.520904541015625 344.831787109375 349.19781494140625 353.61932373046875 358.096649169921875 362.630126953125 367.220123291015625 371.86700439453125 376.5711669921875 381.332977294921875 386.152801513671875 391.03106689453125 395.968170166015625 400.964508056640625 406.020538330078125 411.136688232421875 416.3133544921875 421.551055908203125 426.8502197265625 432.211334228515625 437.634857177734375 443.121307373046875 448.671173095703125 454.28497314453125 459.963226318359375 465.706512451171875 471.515350341796875 477.390289306640625 483.33197021484375 489.340911865234375 495.417755126953125 501.5631103515625 507.777618408203125 514.06195068359375 520.41668701171875 526.8426513671875 533.34039306640625 539.91070556640625 546.5543212890625 553.27197265625 560.064453125 566.9324951171875 573.876953125 580.89862060546875 587.9984130859375 595.17718505859375 602.435791015625 609.775146484375 617.19622802734375 624.70001220703125 632.2874755859375 639.95965576171875 647.7176513671875 655.56243896484375 663.49517822265625 671.51702880859375 679.629150390625 687.832763671875 696.129150390625 704.51959228515625 713.00531005859375 721.5877685546875 730.26837158203125 739.04852294921875 747.9298095703125 756.91363525390625 766.001708984375 775.1956787109375 784.49713134765625 793.907958984375 803.429931640625 813.06488037109375 822.81488037109375 832.68182373046875 842.66778564453125 852.77508544921875 863.00579833984375 873.36236572265625 883.84716796875 894.46270751953125 905.21160888671875 916.09661865234375 927.1204833984375 938.28619384765625 949.5968017578125 961.0555419921875 972.66571044921875 984.4307861328125 996.35443115234375 1008.4404296875 1020.6927490234375 1033.1156005859375 1045.7132568359375 1058.4903564453125 1071.4517822265625 1084.6025390625 1097.9478759765625 1111.49365234375 1125.2454833984375 1139.2098388671875 1153.3931884765625 1167.8026123046875 1182.4454345703125 1197.3297119140625 1212.463623046875 1227.8560791015625 1243.516845703125 1259.455810546875 1275.683837890625 1292.2127685546875 1309.0550537109375 1326.2239990234375 1343.7344970703125 1361.60205078125 1379.84375 1398.478271484375 1417.5260009765625 1437.0089111328125 1456.9515380859375 1477.380859375 1498.326416015625 1519.8214111328125 1541.9029541015625 1564.6124267578125 1587.9967041015625 1612.1092529296875 1637.010986328125 1662.7724609375 1689.4754638671875 1717.216552734375 1746.110107421875 1776.2943115234375 1807.9378662109375 1841.251220703125 1876.5018310546875 1914.039306640625 1954.3353271484375 1998.0538330078125 2046.182861328125 2100.3125 2163.3251953125 2241.639892578125 2358.755615234375 2500 2500 2500 2500 2500 2500 2500 2500 2500 2500 2500
223.4785308837890625 225.983734130859375 228.5357208251953125 231.1346435546875 233.7806854248046875 236.4739837646484375 239.2147369384765625 242.0030975341796875 244.8392486572265625 247.7233734130859375 250.6556549072265625 253.6362762451171875 256.665435791015625 259.743316650390625 262.870147705078125 266.046112060546875 269.27142333984375 272.546295166015625 275.8709716796875 279.245635986328125 282.6705322265625 286.145904541015625 289.671966552734375 293.248992919921875 296.877227783203125 300.556884765625 304.28826904296875 308.071624755859375 311.9072265625 315.79534912109375 319.73626708984375 323.730255126953125 327.77764892578125 331.878692626953125 336.033721923828125 340.243072509765625 344.50701904296875 348.825897216796875 353.200042724609375 357.62982177734375 362.11553955078125 366.657562255859375 371.2562255859375 375.911956787109375 380.625091552734375 385.396026611328125 390.225128173828125 395.112823486328125 400.059539794921875 405.065643310546875 410.131591796875 415.2578125 420.44476318359375 425.692901611328125 431.002655029296875 436.374542236328125 441.809051513671875 447.306640625 452.86785888671875 458.493194580078125 464.183197021484375 469.93841552734375 475.7593994140625 481.646697998046875 487.600921630859375 493.6226806640625 499.7125244140625 505.871124267578125 512.09912109375 518.3970947265625 524.76580810546875 531.2059326171875 537.7181396484375 544.30322265625 550.9617919921875 557.69464111328125 564.50262451171875 571.38653564453125 578.3470458984375 585.3851318359375 592.50164794921875 599.6973876953125 606.97332763671875 614.33038330078125 621.76947021484375 629.29156494140625 636.89776611328125 644.5889892578125 652.36639404296875 660.23101806640625 668.1839599609375 676.2264404296875 684.359619140625 692.584716796875 700.90301513671875 709.3157958984375 717.8243408203125 726.43017578125 735.13458251953125 743.9390869140625 752.84515380859375 761.85443115234375 770.968505859375 780.18896484375 789.51763916015625 798.9561767578125 808.506591796875 818.170654296875 827.95037841796875 837.8477783203125 847.864990234375 858.0042724609375 868.267822265625 878.657958984375 889.17724609375 899.828125 910.61334228515625 921.53558349609375 932.59771728515625 943.802734375 955.15374755859375 966.65399169921875 978.306884765625 990.11590576171875 1002.08477783203125 1014.2174072265625 1026.5177001953125 1038.9901123046875 1051.638916015625 1064.46875 1077.484619140625 1090.691650390625 1104.09521484375 1117.701171875 1131.515380859375 1145.54443359375 1159.7947998046875 1174.2738037109375 1188.9888916015625 1203.9483642578125 1219.160400390625 1234.6343994140625 1250.3800048828125 1266.40771484375 1282.728515625 1299.3543701171875 1316.2982177734375 1333.5738525390625 1351.1962890625 1369.1817626953125 1387.5477294921875 1406.3135986328125 1425.5001220703125 1445.13037109375 1465.2294921875 1485.825439453125 1506.9490966796875 1528.635009765625 1550.9215087890625 1573.85205078125 1597.4757080078125 1621.8485107421875 1647.0345458984375 1673.1082763671875 1700.15625 1728.2811279296875 1757.605224609375 1788.2767333984375 1820.4781494140625 1854.438232421875 1890.450927734375 1928.904541015625 1970.330322265625 2015.489990234375 2065.54638671875 2122.442138671875 2189.91943359375 2277.401611328125 2447.5595703125 2500 2500 2500 2500 2500 2500 2500 2500 2500 2500 2500
227.3033599853515625 229.8127899169921875 232.36907958984375 234.972412109375 237.6229248046875 240.3208160400390625 243.0662384033203125 245.8593597412109375 248.70037841796875 251.589447021484375 254.5267791748046875 257.512542724609375 260.54693603515625 263.63018798828125 266.762451171875 269.943939208984375 273.174896240234375 276.455535888671875 279.786041259765625 283.16668701171875 286.59765625 290.079193115234375 293.611541748046875 297.194976806640625 300.8297119140625 304.5159912109375 308.254119873046875 312.044342041015625 315.88690185546875 319.782135009765625 323.730255126953125 327.731597900390625 331.78643798828125 335.895111083984375 340.057861328125 344.275054931640625 348.5469970703125 352.8740234375 357.256439208984375 361.694610595703125 366.1888427734375 370.73956298828125 375.347076416015625 380.01177978515625 384.73406982421875 389.5142822265625 394.35284423828125 399.2501220703125 404.20660400390625 409.222625732421875 414.298675537109375 419.4351806640625 424.632568359375 429.89129638671875 435.211883544921875 440.594757080078125 446.0404052734375 451.54937744140625 457.12213134765625 462.75921630859375 468.461181640625 474.228546142578125 480.0618896484375 485.961761474609375 491.92877197265625 497.963531494140625 504.066619873046875 510.23870849609375 516.48040771484375 522.7923583984375 529.17529296875 535.6298828125 542.15679931640625 548.7568359375 555.4306640625 562.1790771484375 569.00286865234375 575.90283203125 582.8797607421875 589.9345703125 597.06805419921875 604.2811279296875 611.57470703125 618.94976806640625 626.40716552734375 633.947998046875 641.5732421875 649.283935546875 657.08111572265625 664.9659423828125 672.93951416015625 681.0030517578125 689.15765380859375 697.4046630859375 705.74530029296875 714.18084716796875 722.7127685546875 731.34234619140625 740.071044921875 748.90032958984375 757.831787109375 766.86700439453125 776.007568359375 785.255126953125 794.61151123046875 804.07843017578125 813.65777587890625 823.3515625 833.16168212890625 843.0902099609375 853.13934326171875 863.311279296875 873.6082763671875 884.03277587890625 894.5872802734375 905.2742919921875 916.09661865234375 927.056884765625 938.15814208984375 949.4033203125 960.795654296875 972.33837890625 984.03497314453125 995.88897705078125 1007.9041748046875 1020.08447265625 1032.4339599609375 1044.95703125 1057.658203125 1070.5421142578125 1083.61376953125 1096.8785400390625 1110.341796875 1124.0093994140625 1137.8876953125 1151.98291015625 1166.3021240234375 1180.8525390625 1195.6419677734375 1210.678466796875 1225.970947265625 1241.5286865234375 1257.3616943359375 1273.4805908203125 1289.896728515625 1306.6224365234375 1323.6710205078125 1341.0565185546875 1358.7945556640625 1376.901611328125 1395.39599609375 1414.2974853515625 1433.627685546875 1453.4102783203125 1473.671630859375 1494.4404296875 1515.7490234375 1537.6331787109375 1560.1329345703125 1583.2939453125 1607.16748046875 1631.812255859375 1657.2960205078125 1683.6973876953125 1711.1083984375 1739.63818359375 1769.4180908203125 1800.607421875 1833.4041748046875 1868.05859375 1904.89501953125 1944.3472900390625 1987.0185546875 2033.7918701171875 2086.0556640625 2146.234619140625 2219.375732421875 2320.69580078125 2500 2500 2500 2500 2500 2500 2500 2500 2500 2500 2500 2500
231.1787261962890625 233.6924285888671875 236.25311279296875 238.86090087890625 241.5159912109375 244.218536376953125 246.9687042236328125 249.7666778564453125 252.6126251220703125 255.506744384765625 258.449188232421875 261.440185546875 264.47991943359375 267.568603515625 270.706390380859375 273.893524169921875 277.130218505859375 280.416717529296875 283.753173828125 287.139862060546875 290.576995849609375 294.0648193359375 297.60357666015625 301.193511962890625 304.834869384765625 308.52789306640625 312.272857666015625 316.070068359375 319.91973876953125 323.8221435546875 327.77764892578125 331.78643798828125 335.848907470703125 339.96527099609375 344.135894775390625 348.361083984375 352.641143798828125 356.9764404296875 361.36724853515625 365.81396484375 370.316925048828125 374.87646484375 379.49298095703125 384.166839599609375 388.898406982421875 393.68804931640625 398.536224365234375 403.44329833984375 408.409698486328125 413.43585205078125 418.52215576171875 423.669097900390625 428.877105712890625 434.14666748046875 439.47821044921875 444.87225341796875 450.32928466796875 455.849822998046875 461.434326171875 467.0833740234375 472.7974853515625 478.577239990234375 484.42315673828125 490.335845947265625 496.315887451171875 502.3638916015625 508.48046875 514.666259765625 520.92193603515625 527.24810791015625 533.6455078125 540.11480712890625 546.65673828125 553.27197265625 559.96136474609375 566.7255859375 573.56549072265625 580.4818115234375 587.4754638671875 594.54730224609375 601.6981201171875 608.92889404296875 616.240478515625 623.63385009765625 631.1099853515625 638.6697998046875 646.314453125 654.04498291015625 661.86236572265625 669.76776123046875 677.76239013671875 685.8472900390625 694.0238037109375 702.29315185546875 710.65655517578125 719.11541748046875 727.6710205078125 736.32489013671875 745.078369140625 753.9329833984375 762.89031982421875 771.95196533203125 781.11956787109375 790.394775390625 799.7794189453125 809.27532958984375 818.88427734375 828.60833740234375 838.44952392578125 848.40985107421875 858.4915771484375 868.69683837890625 879.028076171875 889.4876708984375 900.078125 910.80206298828125 921.66229248046875 932.6614990234375 943.802734375 955.0889892578125 966.5235595703125 978.1097412109375 989.85101318359375 1001.75103759765625 1013.8135986328125 1026.042724609375 1038.442626953125 1051.017578125 1063.7723388671875 1076.7115478515625 1089.8404541015625 1103.164306640625 1116.688720703125 1130.4197998046875 1144.3636474609375 1158.5269775390625 1172.916748046875 1187.54052734375 1202.4061279296875 1217.52197265625 1232.89697265625 1248.5408935546875 1264.463623046875 1280.6763916015625 1297.1907958984375 1314.0194091796875 1331.17578125 1348.6746826171875 1366.5318603515625 1384.7646484375 1403.3916015625 1422.433349609375 1441.912109375 1461.8526611328125 1482.281982421875 1503.230224609375 1524.7308349609375 1546.8211669921875 1569.5430908203125 1592.9443359375 1617.0787353515625 1642.0081787109375 1667.8040771484375 1694.5498046875 1722.34326171875 1751.3011474609375 1781.564208984375 1813.3050537109375 1846.7388916015625 1882.1407470703125 1919.8707275390625 1960.4168701171875 2004.469970703125 2053.06591796875 2107.890380859375 2172.0517578125 2252.71484375 2379.376708984375 2500 2500 2500 2500 2500 2500 2500 2500 2500 2500 2500 2500
235.1048583984375 237.6229248046875 240.1880645751953125 242.8004150390625 245.4601287841796875 248.16741943359375 250.9224090576171875 253.725311279296875 256.576263427734375 259.475494384765625 262.423187255859375 265.41949462890625 268.46466064453125 271.558837890625 274.7022705078125 277.8951416015625 281.137664794921875 284.430084228515625 287.772613525390625 291.16546630859375 294.60888671875 298.10308837890625 301.648345947265625 305.244873046875 308.892974853515625 312.592864990234375 316.344818115234375 320.149078369140625 324.0059814453125 327.915740966796875 331.878692626953125 335.895111083984375 339.96527099609375 344.089508056640625 348.26812744140625 352.50146484375 356.789794921875 361.13348388671875 365.532867431640625 369.988250732421875 374.50006103515625 379.068603515625 383.694244384765625 388.377410888671875 393.118408203125 397.917694091796875 402.775634765625 407.692657470703125 412.669158935546875 417.705596923828125 422.8023681640625 427.959930419921875 433.17877197265625 438.459320068359375 443.80206298828125 449.20745849609375 454.676055908203125 460.208343505859375 465.804840087890625 471.466033935546875 477.192535400390625 482.984893798828125 488.8436279296875 494.76934814453125 500.76263427734375 506.824127197265625 512.9544677734375 519.15423583984375 525.424072265625 531.7647705078125 538.1768798828125 544.6611328125 551.21832275390625 557.84912109375 564.5543212890625 571.33465576171875 578.19097900390625 585.1240234375 592.13470458984375 599.22381591796875 606.392333984375 613.64105224609375 620.97100830078125 628.383056640625 635.87823486328125 643.45751953125 651.1219482421875 658.87261962890625 666.71063232421875 674.63702392578125 682.65301513671875 690.75982666015625 698.9586181640625 707.250732421875 715.63739013671875 724.11993408203125 732.6998291015625 741.37835693359375 750.15716552734375 759.03759765625 768.0213623046875 777.1099853515625 786.30517578125 795.608642578125 805.0220947265625 814.54754638671875 824.186767578125 833.9417724609375 843.81463623046875 853.80743408203125 863.92236328125 874.1617431640625 884.5279541015625 895.02337646484375 905.65057373046875 916.41229248046875 927.31121826171875 938.3502197265625 949.5323486328125 960.86065673828125 972.33837890625 983.968994140625 995.7559814453125 1007.703125 1019.814208984375 1032.0933837890625 1044.5447998046875 1057.1729736328125 1069.9825439453125 1082.978515625 1096.166015625 1109.5504150390625 1123.1375732421875 1136.93359375 1150.94482421875 1165.1778564453125 1179.6402587890625 1194.3392333984375 1209.283203125 1224.48046875 1239.9404296875 1255.6728515625 1271.6881103515625 1287.99755859375 1304.613037109375 1321.547607421875 1338.8153076171875 1356.4310302734375 1374.4112548828125 1392.773681640625 1411.537841796875 1430.7244873046875 1450.357177734375 1470.4613037109375 1491.06494140625 1512.199462890625 1533.8995361328125 1556.2044677734375 1579.157958984375 1602.8099365234375 1627.217041015625 1652.4447021484375 1678.568359375 1705.6763916015625 1733.8734130859375 1763.2843017578125 1794.0609130859375 1826.390380859375 1860.508056640625 1896.71728515625 1935.4205322265625 1977.171142578125 2022.7684326171875 2073.444091796875 2131.2861328125 2200.4169921875 2291.79345703125 2500 2500 2500 2500 2500 2500 2500 2500 2500 2500 2500 2500 2500
239.0820465087890625 241.60455322265625 244.1742095947265625 246.7911834716796875 249.45562744140625 252.1677093505859375 254.9276123046875 257.73553466796875 260.591583251953125 263.49603271484375 266.449005126953125 269.45074462890625 272.50140380859375 275.6011962890625 278.7503662109375 281.949066162109375 285.197540283203125 288.496002197265625 291.84466552734375 295.2437744140625 298.693572998046875 302.19427490234375 305.74615478515625 309.34942626953125 313.00433349609375 316.711181640625 320.470245361328125 324.28173828125 328.145965576171875 332.063201904296875 336.033721923828125 340.057861328125 344.135894775390625 348.26812744140625 352.45489501953125 356.69647216796875 360.99322509765625 365.345458984375 369.7535400390625 374.217803955078125 378.73858642578125 383.3162841796875 387.95123291015625 392.643829345703125 397.39447021484375 402.20355224609375 407.071441650390625 411.998565673828125 416.9853515625 422.032257080078125 427.1396484375 432.30804443359375 437.537872314453125 442.829620361328125 448.1837158203125 453.6007080078125 459.081085205078125 464.625335693359375 470.2340087890625 475.907623291015625 481.646697998046875 487.451873779296875 493.323638916015625 499.26263427734375 505.269439697265625 511.34466552734375 517.48895263671875 523.70294189453125 529.9873046875 536.34271240234375 542.76983642578125 549.26934814453125 555.84210205078125 562.48870849609375 569.21002197265625 576.00677490234375 582.8797607421875 589.829833984375 596.85784912109375 603.96466064453125 611.151123046875 618.418212890625 625.766845703125 633.19793701171875 640.7125244140625 648.31158447265625 655.9962158203125 663.7674560546875 671.62640380859375 679.57421875 687.612060546875 695.74114990234375 703.96270751953125 712.27801513671875 720.6883544921875 729.195068359375 737.7996826171875 746.50347900390625 755.30804443359375 764.21490478515625 773.22552490234375 782.34173583984375 791.5650634765625 800.89727783203125 810.34027099609375 819.89581298828125 829.56591796875 839.3525390625 849.25775146484375 859.28369140625 869.4326171875 879.706787109375 890.10870361328125 900.6407470703125 911.3055419921875 922.1058349609375 933.04437255859375 944.1240234375 955.34796142578125 966.71917724609375 978.24114990234375 989.917236328125 1001.75103759765625 1013.746337890625 1025.9071044921875 1038.2373046875 1050.7415771484375 1063.4241943359375 1076.2900390625 1089.3441162109375 1102.5916748046875 1116.038330078125 1129.6898193359375 1143.552490234375 1157.6326904296875 1171.9375 1186.4742431640625 1201.2506103515625 1216.27490234375 1231.5560302734375 1247.1033935546875 1262.9268798828125 1279.0372314453125 1295.4461669921875 1312.1658935546875 1329.209716796875 1346.592041015625 1364.328369140625 1382.4356689453125 1400.9322509765625 1419.8380126953125 1439.1748046875 1458.9669189453125 1479.240478515625 1500.0250244140625 1521.35302734375 1543.2607421875 1565.7890625 1588.984130859375 1612.89794921875 1637.590576171875 1663.130859375 1689.598876953125 1717.0887451171875 1745.7122802734375 1775.603759765625 1806.9271240234375 1839.8863525390625 1874.7401123046875 1911.8248291015625 1951.59326171875 1994.6783447265625 2042.0152587890625 2095.092529296875 2156.5615234375 2232.13818359375 2340.783203125 2500 2500 2500 2500 2500 2500 2500 2500 2500 2500 2500 2500 2500
243.1105499267578125 245.6375579833984375 248.211822509765625 250.8334808349609375 253.5027313232421875 256.219696044921875 258.984619140625 261.797607421875 264.65887451171875 267.568603515625 270.5269775390625 273.5341796875 276.5904541015625 279.695953369140625 282.850921630859375 286.0555419921875 289.31005859375 292.614654541015625 295.9696044921875 299.375091552734375 302.83135986328125 306.33868408203125 309.89727783203125 313.50738525390625 317.169281005859375 320.883209228515625 324.649444580078125 328.468292236328125 332.3399658203125 336.264801025390625 340.243072509765625 344.275054931640625 348.361083984375 352.50146484375 356.69647216796875 360.94647216796875 365.25177001953125 369.612701416015625 374.029632568359375 378.502899169921875 383.0328369140625 387.61981201171875 392.264251708984375 396.96649169921875 401.726898193359375 406.545928955078125 411.423919677734375 416.361358642578125 421.358612060546875 426.4161376953125 431.534393310546875 436.713775634765625 441.954803466796875 447.2579345703125 452.623626708984375 458.052398681640625 463.54473876953125 469.1011962890625 474.72222900390625 480.408447265625 486.160369873046875 491.97857666015625 497.8636474609375 503.816131591796875 509.836700439453125 515.9259033203125 522.08441162109375 528.31292724609375 534.61199951171875 540.98236083984375 547.4248046875 553.93988037109375 560.5284423828125 567.191162109375 573.92889404296875 580.7423095703125 587.63238525390625 594.59979248046875 601.64544677734375 608.770263671875 615.97503662109375 623.26080322265625 630.62841796875 638.0789794921875 645.61328125 653.2325439453125 660.937744140625 668.72991943359375 676.61029052734375 684.5799560546875 692.64007568359375 700.7918701171875 709.03656005859375 717.37554931640625 725.81005859375 734.34149169921875 742.97125244140625 751.7008056640625 760.53167724609375 769.46539306640625 778.5035400390625 787.6478271484375 796.89990234375 806.26153564453125 815.73455810546875 825.3209228515625 835.02252197265625 844.84136962890625 854.7796630859375 864.8394775390625 875.0230712890625 885.33282470703125 895.771240234375 906.3406982421875 917.04388427734375 927.88360595703125 938.86260986328125 949.98388671875 961.25048828125 972.66571044921875 984.23284912109375 995.9554443359375 1007.837158203125 1019.88177490234375 1032.0933837890625 1044.47607421875 1057.0343017578125 1069.772705078125 1082.6961669921875 1095.809814453125 1109.1190185546875 1122.6292724609375 1136.3468017578125 1150.27783203125 1164.428955078125 1178.807373046875 1193.4205322265625 1208.2763671875 1223.3834228515625 1238.7506103515625 1254.3876953125 1270.304931640625 1286.5133056640625 1303.024658203125 1319.8516845703125 1337.0081787109375 1354.5087890625 1372.3697509765625 1390.6082763671875 1409.243408203125 1428.2957763671875 1447.7880859375 1467.7452392578125 1488.1947021484375 1509.1669921875 1530.6961669921875 1552.8199462890625 1575.581298828125 1599.0283203125 1623.216064453125 1648.207763671875 1674.0762939453125 1700.90673828125 1728.7996826171875 1757.8746337890625 1788.2767333984375 1820.183837890625 1853.8189697265625 1889.4674072265625 1927.5054931640625 1968.4456787109375 2013.01953125 2062.335693359375 2118.227783203125 2184.167724609375 2268.59130859375 2415.4423828125 2500 2500 2500 2500 2500 2500 2500 2500 2500 2500 2500 2500 2500
247.190643310546875 249.7222442626953125 252.301177978515625 254.9276123046875 257.601715087890625 260.32366943359375 263.093658447265625 265.91180419921875 268.778350830078125 271.6934814453125 274.657318115234375 277.670135498046875 280.73211669921875 283.843414306640625 287.004302978515625 290.214935302734375 293.4755859375 296.78643798828125 300.147735595703125 303.5596923828125 307.0225830078125 310.536590576171875 314.102020263671875 317.719085693359375 321.3880615234375 325.10919189453125 328.882781982421875 332.709075927734375 336.588348388671875 340.520904541015625 344.50701904296875 348.5469970703125 352.641143798828125 356.789794921875 360.99322509765625 365.25177001953125 369.565765380859375 373.935546875 378.361480712890625 382.843902587890625 387.383148193359375 391.9796142578125 396.633636474609375 401.345672607421875 406.116058349609375 410.9451904296875 415.83349609375 420.781402587890625 425.789306640625 430.857666015625 435.986907958984375 441.177520751953125 446.429931640625 451.744659423828125 457.12213134765625 462.562896728515625 468.067413330078125 473.636260986328125 479.269927978515625 484.968994140625 490.733978271484375 496.565460205078125 502.464019775390625 508.430267333984375 514.46478271484375 520.5682373046875 526.74127197265625 532.9844970703125 539.298583984375 545.68426513671875 552.1422119140625 558.67315673828125 565.27777099609375 571.95697021484375 578.71136474609375 585.5418701171875 592.44921875 599.43426513671875 606.4979248046875 613.64105224609375 620.86456298828125 628.16937255859375 635.556396484375 643.02667236328125 650.5811767578125 658.220947265625 665.94708251953125 673.76068115234375 681.662841796875 689.65472412109375 697.737548828125 705.9124755859375 714.18084716796875 722.5439453125 731.00311279296875 739.5596923828125 748.2152099609375 756.97100830078125 765.8287353515625 774.78985595703125 783.8560791015625 793.02899169921875 802.31036376953125 811.7020263671875 821.205810546875 830.82354736328125 840.55731201171875 850.40911865234375 860.38116455078125 870.47552490234375 880.694580078125 891.04071044921875 901.516357421875 912.12408447265625 922.86651611328125 933.74652099609375 944.76690673828125 955.93072509765625 967.24102783203125 978.70123291015625 990.3145751953125 1002.08477783203125 1014.0155029296875 1026.110595703125 1038.3741455078125 1050.810546875 1063.4241943359375 1076.2198486328125 1089.202392578125 1102.3770751953125 1115.749267578125 1129.324951171875 1143.1102294921875 1157.111328125 1171.335205078125 1185.7891845703125 1200.4808349609375 1215.4183349609375 1230.6103515625 1246.066162109375 1261.795654296875 1277.809326171875 1294.1185302734375 1310.7354736328125 1327.6732177734375 1344.9459228515625 1362.5687255859375 1380.5582275390625 1398.932373046875 1417.7108154296875 1436.9149169921875 1456.568115234375 1476.696533203125 1497.32861328125 1518.49609375 1540.234375 1562.5833740234375 1585.587646484375 1609.2979736328125 1633.7725830078125 1659.077880859375 1685.29150390625 1712.5040283203125 1740.82275390625 1770.3768310546875 1801.3226318359375 1833.8543701171875 1868.216796875 1904.7269287109375 1943.8076171875 1986.0447998046875 2032.2928466796875 2083.886962890625 2143.138671875 2214.78076171875 2312.5166015625 2500 2500 2500 2500 2500 2500 2500 2500 2500 2500 2500 2500 2500 2500
251.3226165771484375 253.8588714599609375 256.44256591796875 259.0738525390625 261.7529296875 264.47991943359375 267.25506591796875 270.0784912109375 272.95037841796875 275.8709716796875 278.84039306640625 281.85888671875 284.9266357421875 288.043853759765625 291.210723876953125 294.427520751953125 297.69439697265625 301.0115966796875 304.379364013671875 307.79791259765625 311.267486572265625 314.788330078125 318.3607177734375 321.98486328125 325.6610107421875 329.389495849609375 333.1705322265625 337.00439453125 340.891387939453125 344.831787109375 348.825897216796875 352.8740234375 356.9764404296875 361.13348388671875 365.345458984375 369.612701416015625 373.935546875 378.314361572265625 382.749420166015625 387.24114990234375 391.78985595703125 396.39593505859375 401.059783935546875 405.781768798828125 410.562286376953125 415.401702880859375 420.300506591796875 425.259063720703125 430.277801513671875 435.357177734375 440.49761962890625 445.69964599609375 450.963653564453125 456.290130615234375 461.67962646484375 467.132568359375 472.649505615234375 478.230987548828125 483.877471923828125 489.589599609375 495.36785888671875 501.212860107421875 507.12518310546875 513.10540771484375 519.15423583984375 525.27215576171875 531.4599609375 537.7181396484375 544.04754638671875 550.44879150390625 556.92254638671875 563.4696044921875 570.0906982421875 576.78656005859375 583.5579833984375 590.40582275390625 597.330810546875 604.3338623046875 611.4158935546875 618.57763671875 625.8201904296875 633.14434814453125 640.5511474609375 648.04156494140625 655.61663818359375 663.27740478515625 671.02490234375 678.8602294921875 686.78460693359375 694.7991943359375 702.9051513671875 711.10369873046875 719.39617919921875 727.78387451171875 736.2681884765625 744.8504638671875 753.53216552734375 762.31475830078125 771.1998291015625 780.18896484375 789.28375244140625 798.4859619140625 807.79730224609375 817.21954345703125 826.754638671875 836.40447998046875 846.17108154296875 856.05657958984375 866.06304931640625 876.1927490234375 886.447998046875 896.83123779296875 907.344970703125 917.99176025390625 928.77435302734375 939.695556640625 950.75823974609375 961.96551513671875 973.32061767578125 984.82672119140625 996.4874267578125 1008.30633544921875 1020.28717041015625 1032.4339599609375 1044.7508544921875 1057.2421875 1069.91259765625 1082.7667236328125 1095.809814453125 1109.047119140625 1122.484130859375 1136.1268310546875 1149.9814453125 1164.0546875 1178.353271484375 1192.8848876953125 1207.6572265625 1222.6785888671875 1237.9580078125 1253.5048828125 1269.3294677734375 1285.4425048828125 1301.8555908203125 1318.5814208984375 1335.6331787109375 1353.0257568359375 1370.774658203125 1388.89697265625 1407.411376953125 1426.3380126953125 1445.6993408203125 1465.5194091796875 1485.825439453125 1506.6470947265625 1528.0174560546875 1549.9736328125 1572.5572509765625 1595.8153076171875 1619.8011474609375 1644.576171875 1670.2108154296875 1696.7877197265625 1724.4034423828125 1753.17333984375 1783.2364501953125 1814.7628173828125 1847.9647216796875 1883.1126708984375 1920.5606689453125 1960.78759765625 2004.469970703125 2052.61865234375 2106.87158203125 2170.227294921875 2249.50048828125 2371.353271484375 2500 2500 2500 2500 2500 2500 2500 2500 2500 2500 2500 2500 2500 2500
255.506744384765625 258.0477294921875 260.636260986328125 263.272491455078125 265.956573486328125 268.688720703125 271.469085693359375 274.2978515625 277.17523193359375 280.101348876953125 283.076446533203125 286.100738525390625 289.174346923828125 292.297576904296875 295.4705810546875 298.693572998046875 301.966796875 305.29046630859375 308.664794921875 312.09002685546875 315.566436767578125 319.09423828125 322.67364501953125 326.30499267578125 329.98846435546875 333.724395751953125 337.51300048828125 341.354583740234375 345.249420166015625 349.19781494140625 353.200042724609375 357.256439208984375 361.36724853515625 365.532867431640625 369.7535400390625 374.029632568359375 378.361480712890625 382.749420166015625 387.193817138671875 391.69500732421875 396.25335693359375 400.869232177734375 405.54302978515625 410.275146484375 415.065948486328125 419.915863037109375 424.8253173828125 429.794708251953125 434.824462890625 439.9150390625 445.066925048828125 450.280517578125 455.556304931640625 460.894805908203125 466.296478271484375 471.7618408203125 477.291412353515625 482.885711669921875 488.5452880859375 494.27069091796875 500.0625 505.9212646484375 511.84759521484375 517.84210205078125 523.9053955078125 530.0380859375 536.2408447265625 542.51434326171875 548.85931396484375 555.2763671875 561.76629638671875 568.3297119140625 574.967529296875 581.680419921875 588.46917724609375 595.33465576171875 602.2777099609375 609.299072265625 616.39971923828125 623.58056640625 630.8424072265625 638.18634033203125 645.61328125 653.124267578125 660.72027587890625 668.40234375 676.171630859375 684.0291748046875 691.9761962890625 700.013916015625 708.1434326171875 716.3660888671875 724.68310546875 733.095947265625 741.6058349609375 750.21429443359375 758.9227294921875 767.73272705078125 776.64569091796875 785.66339111328125 794.78741455078125 804.01947021484375 813.361328125 822.81488037109375 832.3819580078125 842.06451416015625 851.86468505859375 861.78448486328125 871.826171875 881.991943359375 892.28424072265625 902.70538330078125 913.258056640625 923.94482421875 934.76837158203125 945.731689453125 956.837646484375 968.08941650390625 979.490234375 991.04339599609375 1002.75250244140625 1014.62127685546875 1026.6534423828125 1038.8531494140625 1051.224609375 1063.7723388671875 1076.500732421875 1089.4150390625 1102.5201416015625 1115.821533203125 1129.324951171875 1143.0364990234375 1156.96240234375 1171.1094970703125 1185.48486328125 1200.09619140625 1214.951416015625 1230.05908203125 1245.4283447265625 1261.0689697265625 1276.991455078125 1293.206787109375 1309.7269287109375 1326.5648193359375 1343.7344970703125 1361.250732421875 1379.1297607421875 1397.389404296875 1416.0489501953125 1435.129150390625 1454.6531982421875 1474.6463623046875 1495.1368408203125 1516.155517578125 1537.737060546875 1559.920166015625 1582.7486572265625 1606.2718505859375 1630.546142578125 1655.6363525390625 1681.617431640625 1708.5772705078125 1736.619384765625 1765.867919921875 1796.47314453125 1828.620849609375 1862.5440673828125 1898.54345703125 1937.016845703125 1978.51171875 2023.8172607421875 2074.14794921875 2131.557373046875 2200.083251953125 2290.357421875 2500 2500 2500 2500 2500 2500 2500 2500 2500 2500 2500 2500 2500 2500 2500
259.743316650390625 262.28912353515625 264.882537841796875 267.5238037109375 270.2130126953125 272.95037841796875 275.736083984375 278.570281982421875 281.45318603515625 284.38494873046875 287.365814208984375 290.395965576171875 293.4755859375 296.604888916015625 299.784088134765625 303.013427734375 306.2930908203125 309.623321533203125 313.00433349609375 316.4364013671875 319.91973876953125 323.454559326171875 327.04119873046875 330.679840087890625 334.370758056640625 338.1142578125 341.910552978515625 345.760009765625 349.662811279296875 353.61932373046875 357.62982177734375 361.694610595703125 365.81396484375 369.988250732421875 374.217803955078125 378.502899169921875 382.843902587890625 387.24114990234375 391.69500732421875 396.205810546875 400.773956298828125 405.399810791015625 410.083740234375 414.826141357421875 419.62744140625 424.488006591796875 429.408294677734375 434.388702392578125 439.4296875 444.53167724609375 449.695159912109375 454.9205322265625 460.208343505859375 465.559051513671875 470.97314453125 476.451141357421875 481.993560791015625 487.600921630859375 493.2738037109375 499.01275634765625 504.81829833984375 510.691070556640625 516.63165283203125 522.640625 528.71868896484375 534.86639404296875 541.08447265625 547.37353515625 553.734375 560.16754150390625 566.673828125 573.2540283203125 579.90887451171875 586.63909912109375 593.44549560546875 600.3289794921875 607.290283203125 614.33038330078125 621.45001220703125 628.65020751953125 635.931884765625 643.29595947265625 650.743408203125 658.2752685546875 665.892578125 673.596435546875 681.38787841796875 689.26812744140625 697.23822021484375 705.2994384765625 713.45306396484375 721.70025634765625 730.0423583984375 738.48077392578125 747.016845703125 755.6519775390625 764.3876953125 773.22552490234375 782.16705322265625 791.2138671875 800.36767578125 809.63018798828125 819.0032958984375 828.48870849609375 838.08843994140625 847.80450439453125 857.638916015625 867.59381103515625 877.67144775390625 887.87408447265625 898.20416259765625 908.6640625 919.25653076171875 929.98406982421875 940.849609375 951.85595703125 963.00616455078125 974.303466796875 985.75103759765625 997.35235595703125 1009.11102294921875 1021.03076171875 1033.1156005859375 1045.3695068359375 1057.796875 1070.402099609375 1083.190185546875 1096.166015625 1109.334716796875 1122.701904296875 1136.2734375 1150.0555419921875 1164.0546875 1178.277587890625 1192.7318115234375 1207.425048828125 1222.365478515625 1237.5618896484375 1253.023681640625 1268.7607421875 1284.783935546875 1301.1046142578125 1317.7352294921875 1334.6888427734375 1351.97998046875 1369.6239013671875 1387.6376953125 1406.039306640625 1424.848876953125 1444.0880126953125 1463.7808837890625 1483.9537353515625 1504.6357421875 1525.859375 1547.6607666015625 1570.0806884765625 1593.164794921875 1616.9654541015625 1641.5421142578125 1666.96337890625 1693.3092041015625 1720.67333984375 1749.1671142578125 1778.9244384765625 1810.1087646484375 1842.923095703125 1877.62548828125 1914.551513671875 1954.1519775390625 1997.05859375 2044.2039794921875 2097.0732421875 2158.31298828125 2233.635498046875 2342.044189453125 2500 2500 2500 2500 2500 2500 2500 2500 2500 2500 2500 2500 2500 2500 2500
264.03265380859375 266.583343505859375 269.1817626953125 271.828094482421875 274.52252197265625 277.26519775390625 280.056304931640625 282.896026611328125 285.784576416015625 288.722076416015625 291.70880126953125 294.744903564453125 297.83062744140625 300.96612548828125 304.151641845703125 307.38739013671875 310.673614501953125 314.010528564453125 317.398345947265625 320.837310791015625 324.32769775390625 327.869720458984375 331.463623046875 335.109710693359375 338.808197021484375 342.55938720703125 346.363525390625 350.220947265625 354.131866455078125 358.096649169921875 362.11553955078125 366.1888427734375 370.316925048828125 374.50006103515625 378.73858642578125 383.0328369140625 387.383148193359375 391.78985595703125 396.25335693359375 400.773956298828125 405.35205078125 409.988037109375 414.682281494140625 419.4351806640625 424.24713134765625 429.1185302734375 434.04986572265625 439.041473388671875 444.0938720703125 449.20745849609375 454.382720947265625 459.620147705078125 464.920135498046875 470.28326416015625 475.709991455078125 481.20086669921875 486.75634765625 492.37701416015625 498.063446044921875 503.816131591796875 509.635711669921875 515.52276611328125 521.47784423828125 527.5015869140625 533.59466552734375 539.7576904296875 545.99127197265625 552.29620361328125 558.67315673828125 565.12274169921875 571.645751953125 578.24298095703125 584.9151611328125 591.66302490234375 598.4874267578125 605.38922119140625 612.36920166015625 619.42828369140625 626.56732177734375 633.7872314453125 641.08905029296875 648.4736328125 655.94195556640625 663.49517822265625 671.13421630859375 678.8602294921875 686.67431640625 694.57763671875 702.5712890625 710.65655517578125 718.83465576171875 727.10687255859375 735.47454833984375 743.9390869140625 752.50177001953125 761.1641845703125 769.927734375 778.79400634765625 787.7646484375 796.8411865234375 806.025390625 815.31903076171875 824.723876953125 834.241943359375 843.875 853.62518310546875 863.49456787109375 873.48529052734375 883.59967041015625 893.8399658203125 904.20867919921875 914.708251953125 925.34130859375 936.110595703125 947.01898193359375 958.06939697265625 969.264892578125 980.60870361328125 992.1041259765625 1003.75469970703125 1015.5640869140625 1027.5361328125 1039.6746826171875 1051.984130859375 1064.46875 1077.1331787109375 1089.9822998046875 1103.0211181640625 1116.255126953125 1129.6898193359375 1143.331298828125 1157.185791015625 1171.260009765625 1185.5609130859375 1200.09619140625 1214.87353515625 1229.901611328125 1245.189208984375 1260.7462158203125 1276.5826416015625 1292.7095947265625 1309.138916015625 1325.88330078125 1342.956298828125 1360.3729248046875 1378.1488037109375 1396.3016357421875 1414.8502197265625 1433.815185546875 1453.21923828125 1473.087158203125 1493.446533203125 1514.32763671875 1535.7645263671875 1557.795166015625 1580.4620361328125 1603.8135986328125 1627.90478515625 1652.7987060546875 1678.568359375 1705.298828125 1733.090576171875 1762.063720703125 1792.363037109375 1824.167236328125 1857.699462890625 1893.246337890625 1931.1854248046875 1972.0322265625 2016.52294921875 2065.776611328125 2121.648193359375 2187.670166015625 2272.513671875 2424.171142578125 2500 2500 2500 2500 2500 2500 2500 2500 2500 2500 2500 2500 2500 2500 2500
